  0.827051411666230E-006 -0.107686017005665E-005 -0.115534561942157E-005  0.707072087983655E-005 -0.380074175539884E-005 -0.242944677093567E-004  0.255398362887874E-004
  0.826498673340802E-006 -0.318143314209762E-005 -0.584222578456742E-007  0.824326871468945E-005 -0.830255451390794E-005 -0.235034452350423E-004  0.262665232108347E-004
  0.161589756725815E-008 -0.528204307253888E-005  0.162373716484554E-005  0.830303170970494E-005 -0.134505890028941E-004 -0.214821400719672E-004  0.269575049340010E-004
 -0.175035847728129E-005 -0.675382877578163E-005  0.335561331405490E-005  0.713704162097580E-005 -0.186631689559585E-004 -0.178605387785495E-004  0.275526052662773E-004
 -0.411583769451970E-005 -0.700380704356290E-005  0.451045180960598E-005  0.499260980954303E-005 -0.231804187572386E-004 -0.125248348344083E-004  0.280215548877038E-004
 -0.642092872803975E-005 -0.576191860764554E-005  0.466087331383733E-005  0.247188777654244E-005 -0.262080314399402E-004 -0.573143326028620E-005  0.283512221802170E-004
 -0.792024675310218E-005 -0.326933400342372E-005  0.380167895202684E-005  0.308132448073026E-006 -0.271283197363310E-004  0.188200141237387E-005  0.285280325877611E-004
 -0.816420018775875E-005 -0.199884248944137E-006  0.233798852673498E-005 -0.958261465459393E-006 -0.257000774097810E-004  0.942479294308887E-005  0.285312060890416E-004
 -0.719923577238097E-005  0.265846496733081E-005  0.838880624809430E-006 -0.118652161204075E-005 -0.221527586245801E-004  0.159912347765403E-004  0.283421953627441E-004
 -0.547642177670157E-005  0.474488349351944E-005 -0.261375844650822E-006 -0.599562185028222E-006 -0.171213321802896E-004  0.209157024226317E-004  0.279602926524097E-004
 -0.357086558403992E-005  0.587374470196809E-005 -0.816692453493715E-006  0.421330228166600E-006 -0.114476988671653E-004  0.239363992429567E-004  0.274108009219715E-004
 -0.192628150215436E-005  0.615570583871565E-005 -0.930448807202312E-006  0.153260466619188E-005 -0.594064094999335E-005  0.252081554107157E-004  0.267406137187524E-004
 -0.754245960252789E-006  0.582441031088661E-005 -0.823535680742551E-006  0.250511220161719E-005 -0.119588044728735E-005  0.251828268296516E-004  0.260069116822147E-004
 -0.650909113893308E-007  0.511041895579490E-005 -0.719961742039341E-006  0.320145624002307E-005  0.246868760460406E-005  0.244314281982900E-004  0.252690450737916E-004
  0.257769504770351E-006  0.420438219409332E-005 -0.781882440065126E-006  0.353001382475436E-005  0.497115766563849E-005  0.234861912580851E-004  0.245886647552745E-004
  0.390555894469311E-006  0.327299319509865E-005 -0.106975556674456E-005  0.342114034630496E-005  0.636658056958450E-005  0.227452272371524E-004  0.240337909588837E-004
  0.504601353035849E-006  0.248392264078514E-005 -0.151153296646094E-005  0.282983979287364E-005  0.674425548768816E-005  0.224392360099248E-004  0.236772016647031E-004
  0.689865162871806E-006  0.201746362506579E-005 -0.189645526703375E-005  0.176153370326098E-005  0.615716965742380E-005  0.226344564499169E-004  0.235841613963079E-004
 -0.239505204823872E-006  0.661668203240688E-005 -0.166400752223307E-005  0.187550097671442E-005 -0.167897218672802E-005  0.255530406893478E-004  0.265236452076405E-004
 -0.524923829098904E-006  0.657007643833689E-005 -0.120706154258615E-005  0.111615326703483E-005 -0.353023588254460E-005  0.257202518028957E-004  0.268125056783212E-004
 -0.142725270442693E-005  0.687553668578890E-005 -0.324697258737965E-006  0.372677033707008E-006 -0.645138797595269E-005  0.255994928744652E-004  0.273198874196300E-004
 -0.323642013138359E-005  0.727894491312929E-005  0.926140053296270E-006  0.119601283979575E-007 -0.102898248240112E-004  0.248239777335220E-004  0.280294399287804E-004
 -0.612179463662062E-005  0.724477164924966E-005  0.220593419340291E-005  0.339225076968017E-006 -0.147340835817688E-004  0.229924762912795E-004  0.288998103748496E-004
 -0.988461268057011E-005  0.605082548530975E-005  0.293476597156729E-005  0.138803132250441E-005 -0.192846133900400E-004  0.197824888722182E-004  0.298655614154662E-004
 -0.137951925042510E-004  0.307925398388306E-005  0.252752059097690E-005  0.275084235150435E-005 -0.232900156648821E-004  0.150806815833320E-004  0.308362005425055E-004
 -0.166884887439545E-004 -0.177540824210107E-005  0.754128616395918E-006  0.361660672796678E-005 -0.260651868578420E-004  0.908299907771357E-005  0.316952210700099E-004
 -0.173873071209734E-004 -0.781590779204888E-005 -0.198381091539657E-005  0.309945294397593E-005 -0.270670379487688E-004  0.230745567811060E-005  0.323041599850537E-004
 -0.152942285723163E-004 -0.136305764880057E-004 -0.469755539921969E-005  0.735190778456984E-006 -0.260603160246399E-004 -0.451064607071620E-005  0.325180365890449E-004
 -0.107991253039423E-004 -0.176232955709907E-004 -0.624145377355578E-005 -0.316223601092897E-005 -0.231943348038782E-004 -0.106134262907181E-004  0.322152028285647E-004
 -0.519300353670096E-005 -0.187272186577855E-004 -0.590561972521616E-005 -0.756186106786682E-005 -0.189499759936736E-004 -0.154254307689764E-004  0.313357991667685E-004
 -0.927564439842394E-007 -0.168673488657462E-004 -0.378863989261952E-005 -0.111940795189882E-004 -0.139841746392493E-004 -0.186823637173809E-004  0.299143124671672E-004
  0.327282290644698E-005 -0.128936916437539E-004 -0.709915662076493E-006 -0.131381510179746E-004 -0.894826214320053E-005 -0.204429285428906E-004  0.280898974350330E-004
  0.449004221366374E-005 -0.808006985370454E-005  0.224386848325267E-005 -0.131487259658265E-004 -0.435486902858551E-005 -0.210054672286807E-004  0.260853136871768E-004
  0.392201224677577E-005 -0.355002882118879E-005  0.421271864627655E-005 -0.115789785372833E-004 -0.526433954716165E-006 -0.207858570080450E-004  0.241577456302931E-004
  0.235250707527892E-005  0.481244448037993E-007  0.482196794525899E-005 -0.904770766286503E-005  0.238616577569488E-005 -0.202077875071234E-004  0.225386262867255E-004
  0.595396500401111E-006  0.253983000260429E-005  0.415825627699698E-005 -0.610880980634289E-005  0.434757602801664E-005 -0.196285606816704E-004  0.213868433497094E-004
 -0.741923433708588E-006  0.402697893494712E-005  0.259644470658574E-005 -0.308693228243922E-005  0.537448917753257E-005 -0.192995711009976E-004  0.207729069306697E-004
 -0.132538728255338E-005  0.467007442788511E-005  0.631964667863145E-006 -0.887467476385319E-007  0.548456193182097E-005 -0.193495791447250E-004  0.206910453030470E-004
 -0.107583807758816E-005  0.455394097491302E-005 -0.121556753568032E-005  0.288449531973151E-005  0.466805756851480E-005 -0.197788939476325E-004  0.210813676872493E-004
 -0.144331672167628E-006  0.366222691131012E-005 -0.245209469474276E-005  0.579863821627905E-005  0.288777825218634E-005 -0.204572581743895E-004  0.218473798386940E-004
  0.110158605301814E-005  0.194753550163754E-005 -0.267121469863614E-005  0.847458994116156E-005  0.109424656840675E-006 -0.211261081439693E-004  0.228677629971267E-004
  0.212064020787039E-005 -0.533080219757098E-006 -0.166284957807909E-005  0.105483300439743E-004 -0.364184940719334E-005 -0.214133487025434E-004  0.240085760574396E-004
  0.232550668396068E-005 -0.347869243301857E-005  0.459523021018021E-006  0.115465170786274E-004 -0.821048022959798E-005 -0.208757975552976E-004  0.251411872477504E-004
  0.130255383813572E-005 -0.629705324783298E-005  0.320245073514940E-005  0.110825456819561E-004 -0.132502652499365E-004 -0.190822245418360E-004  0.261631101554690E-004
 -0.961856337304844E-006 -0.823107509570952E-005  0.579975110272229E-005  0.909357127456610E-005 -0.182099108706065E-004 -0.157348852738409E-004  0.270120443601699E-004
 -0.399747245273854E-005 -0.864271420014561E-005  0.748763189634940E-005  0.597023036832399E-005 -0.223986892678721E-004 -0.107994412816750E-004  0.276644142871647E-004
 -0.700567814971892E-005 -0.730580931906649E-005  0.781817294689869E-005  0.246481910537440E-005 -0.251380797947860E-004 -0.458551216508329E-005  0.281192745230209E-004
 -0.919352159786133E-005 -0.451929801707327E-005  0.682525657454102E-005 -0.592304763916175E-006 -0.259576412858511E-004  0.228041467803102E-005  0.283814646912467E-004
 -0.100908463621768E-004 -0.966189185723711E-006  0.494914007409245E-005 -0.260050381867954E-005 -0.247517311266465E-004  0.900596129854113E-005  0.284574545602783E-004
 -0.967469126316820E-005  0.257866418514084E-005  0.279251939281275E-005 -0.334994538801187E-005 -0.218180544309315E-004  0.148565358040400E-004  0.283632058830552E-004
 -0.827649216868133E-005  0.550941955471517E-005  0.871035816951242E-006 -0.299075100041387E-005 -0.177564185337320E-004  0.193549438086233E-004  0.281315463963252E-004
 -0.638200820353392E-005  0.750716824557410E-005 -0.525346952272607E-006 -0.188921419893893E-005 -0.132802247088862E-004  0.223728675489576E-004  0.278092698054059E-004
 -0.444857972283385E-005  0.852574463435466E-005 -0.134650930506941E-005 -0.474412733304133E-006 -0.903196660041131E-005  0.240925236642311E-004  0.274462781580415E-004
 -0.279634187131822E-005  0.871489967253262E-005 -0.171624232705568E-005  0.871543583337390E-006 -0.547421511626146E-005  0.248815893954449E-004  0.270870455849882E-004
 -0.157331892350551E-005  0.833432114912912E-005 -0.183022459065300E-005  0.187310397733849E-005 -0.287415085560619E-005  0.251498324034279E-004  0.267714896210740E-004
 -0.781290296993057E-006  0.768027854411190E-005 -0.184973774402302E-005  0.237952108798996E-005 -0.135245278813346E-005  0.252382030334089E-004  0.265415681221558E-004
 -0.350325987840285E-006  0.703220365197657E-005 -0.182289219705032E-005  0.235661479715107E-005 -0.950468378026803E-006  0.253555979517776E-004  0.264439443883340E-004
 -0.239505204823872E-006  0.661668203240688E-005 -0.166400752223307E-005  0.187550097671442E-005 -0.167897218672802E-005  0.255530406893478E-004  0.265236452076405E-004
 -0.474580975711980E-005  0.106219430541636E-004 -0.143392623613981E-005  0.197748276287780E-005 -0.112697346355137E-004  0.238540424778125E-004  0.289322693152827E-004
 -0.544002197320210E-005  0.102501323134415E-004 -0.934035393666472E-006  0.210516810237759E-005 -0.130264233857115E-004  0.234611771147376E-004  0.293257219075877E-004
 -0.692929099945578E-005  0.976603488214235E-005 -0.273052277195792E-006  0.225515016488194E-005 -0.156139281726972E-004  0.223562466510621E-004  0.298496447152489E-004
 -0.927229275861996E-005  0.886588796241384E-005  0.370790786013658E-006  0.264546962020258E-005 -0.187423242560744E-004  0.202895055437338E-004  0.304925545458810E-004
 -0.123285359194935E-004  0.707290920599659E-005  0.656757556805420E-006  0.336187443814378E-005 -0.219686307609444E-004  0.170612649696019E-004  0.312211312038300E-004
 -0.156057839985081E-004  0.389681144473732E-005  0.174412111696426E-006  0.421853604588781E-005 -0.247337013658734E-004  0.126297203671542E-004  0.319760656924248E-004
 -0.182325530855577E-004 -0.882527040567557E-006 -0.133390732357064E-005  0.470537920412025E-005 -0.264604575588390E-004  0.719602703133497E-005  0.326683614095341E-004
 -0.191657592237658E-004 -0.692003953845324E-005 -0.371777040871335E-005  0.412795677925339E-005 -0.266981311057865E-004  0.122002821690965E-005  0.331794342500468E-004
 -0.176195005430900E-004 -0.132016826904213E-004 -0.631057234235172E-005  0.194482135595659E-005 -0.252615451405674E-004 -0.466175232906588E-005  0.333694373073125E-004
 -0.135187685560888E-004 -0.182903590561139E-004 -0.811465653564391E-005 -0.185716287073705E-005 -0.222993275586853E-004 -0.979951676036679E-005  0.330975115810744E-004
 -0.768583660874371E-005 -0.208757942727883E-004 -0.824661109615261E-005 -0.660252196116682E-005 -0.182491675733917E-004 -0.137106628610391E-004  0.322529470736083E-004
 -0.158248239997794E-005 -0.203472373047335E-004 -0.640041695531007E-005 -0.111383965920231E-004 -0.136953231987907E-004 -0.161971629983034E-004  0.307900036809207E-004
  0.328595475720311E-005 -0.170467147341039E-004 -0.303246633030833E-005 -0.143251737359599E-004 -0.919612051477426E-005 -0.173530849260323E-004  0.287550144764070E-004
  0.596654559766724E-005 -0.120566441962539E-004  0.851226762670131E-006 -0.155113576783401E-004 -0.515851414057996E-005 -0.174768057348876E-004  0.262953156876139E-004
  0.633138768051799E-005 -0.668089423127462E-005  0.415550495246668E-005 -0.147174697912653E-004 -0.179901935849204E-005 -0.169472572160204E-004  0.236458899622487E-004
  0.494415765017842E-005 -0.194388877346362E-005  0.611617493421274E-005 -0.124726703169088E-004  0.822002105103886E-006 -0.161229500878881E-004  0.210949861926665E-004
  0.269018899805058E-005  0.164712717197134E-005  0.647701812872694E-005 -0.946888963271155E-005  0.273459374864201E-005 -0.152903717281878E-004  0.189329351131936E-004
  0.417947620515912E-006  0.404651560256410E-005  0.541937247577732E-005 -0.625664804575786E-005  0.399901368409967E-005 -0.146528811097821E-004  0.173879487902238E-004
 -0.126035369728680E-005  0.545259992884227E-005  0.337834569541118E-005 -0.310992916608394E-005  0.466644328863386E-005 -0.143381027040741E-004  0.165712344190404E-004
 -0.201045978202496E-005  0.608442183570919E-005  0.883156940213105E-006 -0.567791980085751E-007  0.475887603504132E-005 -0.144060121194869E-004  0.164727659715968E-004
 -0.174473244611281E-005  0.604388853578124E-005 -0.152354284725534E-005  0.299511276757858E-005  0.426193992137564E-005 -0.148510061181526E-004  0.170055842953388E-004
 -0.595045198816619E-006  0.528565910223737E-005 -0.331553742822286E-005  0.610696242486410E-005  0.312791817166320E-005 -0.155978070894226E-004  0.180453650337402E-004
  0.108999124299570E-005  0.368403304274993E-005 -0.402440945354736E-005  0.917920122061668E-005  0.129069618756245E-005 -0.164937347663504E-004  0.194437617569887E-004
  0.276127943958058E-005  0.117163828820700E-005 -0.333490859988449E-005  0.118856351323558E-004 -0.130326036214192E-005 -0.173026151707137E-004  0.210351190794468E-004
  0.375808614078940E-005 -0.210010264554570E-005 -0.122015625093484E-005  0.137150836241388E-004 -0.464679170035314E-005 -0.177104411986619E-004  0.226530639358503E-004
  0.349540410143423E-005 -0.566217848878717E-005  0.195864631791907E-005  0.141380363181545E-004 -0.861447320499371E-005 -0.173577649770789E-004  0.241554260510491E-004
  0.169784632978813E-005 -0.877568748440065E-005  0.548293663642199E-005  0.128484892429210E-004 -0.129180543893703E-004 -0.159102780290720E-004  0.254458554270352E-004
 -0.143986715989684E-005 -0.106458935541438E-004  0.847698990770202E-005  0.996144069394493E-005 -0.171073909324864E-004 -0.131605060182894E-004  0.264808382136013E-004
 -0.527803301575710E-005 -0.107158546127958E-004  0.102087601186695E-004  0.604299589284508E-005 -0.206424878075837E-004 -0.912590495437640E-005  0.272598856955745E-004
 -0.895411028823026E-005 -0.888544280636700E-005  0.103435368277162E-004  0.193825397049680E-005 -0.230282277550715E-004 -0.409071166228422E-005  0.278067300082264E-004
 -0.116926636480726E-004 -0.554011583566349E-005  0.902376762748128E-005 -0.151680896509397E-005 -0.239620509443474E-004  0.144523475013965E-005  0.281546495953035E-004
 -0.130495076101828E-004 -0.138964477035541E-005  0.675401278017271E-005 -0.375415103850922E-005 -0.234266588317981E-004  0.690115518536713E-005  0.283422084666381E-004
 -0.129945872327364E-004  0.278277233205898E-005  0.417396703998847E-005 -0.459684236392415E-005 -0.216844580671804E-004  0.117752683875292E-004  0.284141000882561E-004
 -0.118377028517369E-004  0.634346013879065E-005  0.183554872106656E-005 -0.422883724201643E-005 -0.191840859285661E-004  0.157597353898998E-004  0.284184872490121E-004
 -0.100656976870455E-004  0.893371437354999E-005  0.662499457143119E-007 -0.306129190110020E-005 -0.164319447192786E-004  0.187704892865806E-004  0.283994205071333E-004
 -0.817032207571563E-005  0.104863418049401E-004 -0.105440383725289E-005 -0.156712247518422E-005 -0.138860239225338E-004  0.208995578476549E-004  0.283906298402327E-004
 -0.652656699443002E-005  0.111589953772070E-004 -0.162476189270683E-005 -0.144643422928197E-006 -0.119012057313672E-004  0.223278525419130E-004  0.284166562489471E-004
 -0.535168165714457E-005  0.112267724282470E-004 -0.180680088678087E-005  0.956346614123705E-006 -0.107208339864455E-004  0.232371456341065E-004  0.284994502824956E-004
 -0.474107254287019E-005  0.109759020661040E-004 -0.172661831229437E-005  0.164706475360703E-005 -0.104905391398315E-004  0.237428814231571E-004  0.286631165108846E-004
 -0.474580975711980E-005  0.106219430541636E-004 -0.143392623613981E-005  0.197748276287780E-005 -0.112697346355137E-004  0.238540424778125E-004  0.289322693152827E-004
 -0.123957288913347E-004  0.111999967145231E-004 -0.121561125558298E-005  0.207274851861877E-005 -0.193026941515174E-004  0.168603844131059E-004  0.306776786518950E-004
 -0.132137149388490E-004  0.103481244120313E-004 -0.119291959310726E-005  0.291614082287273E-005 -0.205811460572442E-004  0.160583334236928E-004  0.311550822999891E-004
 -0.146965324438074E-004  0.887383955987928E-005 -0.120210534490949E-005  0.367353880145463E-005 -0.222371758595188E-004  0.143601955511848E-004  0.316889658003156E-004
 -0.166915857334127E-004  0.656313087823063E-005 -0.144680431874227E-005  0.437812986603055E-005 -0.239576777235178E-004  0.116902433948906E-004  0.322626395345489E-004
 -0.188408791371996E-004  0.316403778768335E-005 -0.215984528439989E-005  0.493736297542931E-005 -0.253325101779238E-004  0.807497915516442E-005  0.328411250233540E-004
 -0.205449863010839E-004 -0.145553421823818E-005 -0.350718096839619E-005  0.507879115083690E-005 -0.259288001725422E-004  0.370696728703389E-005  0.333659677122610E-004
 -0.210422452269817E-004 -0.710963674924867E-005 -0.544093439909344E-005  0.438498282930771E-005 -0.254003409372284E-004 -0.103464662183951E-005  0.337518914660855E-004
 -0.196405167233648E-004 -0.131573011673939E-004 -0.758553446690067E-005  0.245557304318674E-005 -0.235999614630396E-004 -0.563405270203775E-005  0.338887385388610E-004
 -0.160402763743118E-004 -0.185521161907526E-004 -0.926673382268353E-005 -0.845649509133451E-006 -0.206459452230703E-004 -0.955747458768447E-005  0.336519228124340E-004
 -0.105850182186992E-004 -0.221319173537878E-004 -0.973521272618138E-005 -0.519214322807414E-005 -0.169023843743565E-004 -0.124000331302697E-004  0.329222949243651E-004
 -0.426044663369877E-005 -0.230522995034379E-004 -0.850743570793064E-005 -0.979573722381832E-005 -0.128708946642607E-004 -0.139969399085134E-004  0.316121509376468E-004
  0.161426773131082E-005 -0.211427455922718E-004 -0.563771672157580E-005 -0.136565060264297E-004 -0.903823956073740E-005 -0.144474550935103E-004  0.296907993271488E-004
  0.586905880287789E-005 -0.169788108962235E-004 -0.174887530139011E-005 -0.159460246378144E-004 -0.574817817692548E-005 -0.140454492970211E-004  0.272020341961605E-004
  0.788920308502301E-005 -0.116283569500418E-004  0.220610679113202E-005 -0.163110459724827E-004 -0.314872145404676E-005 -0.131585402391152E-004  0.242685110857287E-004
  0.774925622394971E-005 -0.622494911064035E-005  0.531139076842526E-005 -0.149376824759891E-004 -0.122075331619977E-005 -0.121167858636308E-004  0.210844576150109E-004
  0.605619155152190E-005 -0.160122850436788E-005  0.698407679803674E-005 -0.123743476082079E-004  0.147116017515643E-006 -0.111530794076499E-004  0.179083457512587E-004
  0.364180795268238E-005  0.186328129013260E-005  0.707693361922792E-005 -0.924716137958992E-005  0.108342370993490E-005 -0.103990120455428E-004  0.150724519924448E-004
  0.128082995465629E-005  0.417420461934766E-005  0.580259994777126E-005 -0.602560258023872E-005  0.168718321531052E-005 -0.991346027662628E-005  0.129802788406664E-004
 -0.465132004909009E-006  0.553554932587790E-005  0.358133399258705E-005 -0.292376259662874E-005  0.201290429890326E-005 -0.971551740033239E-005  0.119199721372548E-004
 -0.128186946946459E-005  0.616005899081540E-005  0.911903825576563E-006  0.672786171395335E-007  0.207459862351658E-005 -0.980561494908925E-005  0.118346202426077E-004
 -0.107850495931171E-005  0.614814045574175E-005 -0.169444732476561E-005  0.306835305163783E-005  0.185414642321460E-005 -0.101718299988669E-004  0.125291813840636E-004
  0.353043298870782E-007  0.545705504264391E-005 -0.373817256445179E-005  0.617662327606707E-005  0.130699156480433E-005 -0.107849183448632E-004  0.138566086933286E-004
  0.175264947211254E-005  0.395399470300287E-005 -0.476254925860496E-005  0.934604934087550E-005  0.366275989501425E-006 -0.115861562631845E-004  0.156588043874873E-004
  0.357907371425599E-005  0.153292055528399E-005 -0.442794823478240E-005  0.123190967049387E-004 -0.104749078995325E-005 -0.124709560170279E-004  0.177271208126530E-004
  0.489402088872584E-005 -0.174364510533426E-005 -0.262435916678366E-005  0.146439739333195E-004 -0.300328361273433E-005 -0.132744296057146E-004  0.198453789346563E-004
  0.509039739628574E-005 -0.553933266389568E-005  0.429324591806741E-006  0.157945232081355E-004 -0.552049271154248E-005 -0.137704137462940E-004  0.218373359191047E-004
  0.376683141265583E-005 -0.924155792295384E-005  0.417190763441031E-005  0.153655569413975E-004 -0.852366760926597E-005 -0.136973896727264E-004  0.235861580391341E-004
  0.894622970640356E-006 -0.120930546603393E-004  0.781738822154722E-005  0.132652746852982E-004 -0.118136168932291E-004 -0.128164087905022E-004  0.250356588790619E-004
 -0.313014296088310E-005 -0.134194738448830E-004  0.105802219332381E-004  0.980828701519059E-005 -0.150793990629143E-004 -0.109864399738583E-004  0.261805747388679E-004
 -0.759190896047164E-005 -0.128559222635801E-004  0.119182922337023E-004  0.565256690754700E-005 -0.179606413145045E-004 -0.822526153621791E-005  0.270503578080430E-004
 -0.116807408777154E-004 -0.104688471876241E-004  0.116865708714493E-004  0.160207043573677E-005 -0.201417837248220E-004 -0.472288429793308E-005  0.276925410342417E-004
 -0.147404334510587E-004 -0.672303353325505E-005  0.101395704324755E-004 -0.163688502429830E-005 -0.214392209618191E-004 -0.796539907270392E-006  0.281611456728763E-004
 -0.164399501523060E-004 -0.231882695602653E-005  0.779610577172144E-005 -0.364298799820122E-005 -0.218449233349617E-004  0.319322459555989E-005  0.285105093667852E-004
 -0.168147527152870E-004  0.202287419357601E-005  0.523881258426219E-005 -0.434645887127214E-005 -0.215141536342964E-004  0.692701415704138E-005  0.287910690027184E-004
 -0.161865467197204E-004  0.574287800987194E-005  0.293633960077336E-005 -0.397114205863416E-005 -0.207125345751920E-004  0.101792997996936E-004  0.290448011109035E-004
 -0.150157766116409E-004  0.853686221254110E-005  0.114989174409987E-005 -0.289890197726097E-005 -0.197501830561195E-004  0.128281432745485E-004  0.293020268562860E-004
 -0.137559009971911E-004  0.103479564456076E-004 -0.625740714023759E-007 -0.152322604297817E-005 -0.189247615428673E-004  0.148307331899028E-004  0.295821752165274E-004
 -0.127614315004802E-004  0.112868189529749E-004 -0.776483688193629E-006 -0.145404839834432E-006 -0.184813062803495E-004  0.161820638679307E-004  0.298981114242983E-004
 -0.122642256455510E-004  0.115250850137918E-004 -0.111841602076502E-005  0.106726895593177E-005 -0.185853665001320E-004  0.168730513826425E-004  0.302603003220957E-004
 -0.123957288913347E-004  0.111999967145231E-004 -0.121561125558298E-005  0.207274851861877E-005 -0.193026941515174E-004  0.168603844131059E-004  0.306776786518950E-004
 -0.204500930288311E-004  0.625943460428901E-005 -0.101798701640175E-005  0.216424435882854E-005 -0.224739251080852E-004  0.655019596305357E-005  0.317470093545748E-004
 -0.210246225527789E-004  0.502220344585647E-005 -0.176385357292994E-005  0.320299158820272E-005 -0.231060663902684E-004  0.568701445914227E-005  0.322431549783091E-004
 -0.218538566551712E-004  0.285550173994972E-005 -0.259217949884017E-005  0.402458155495899E-005 -0.236589872692394E-004  0.406149654531087E-005  0.327374301831002E-004
 -0.226978060256620E-004 -0.283994880840641E-006 -0.363864109338544E-005  0.452549447580631E-005 -0.239093344906262E-004  0.173492637892848E-005  0.332045878023605E-004
 -0.231719434181452E-004 -0.437820468622184E-005 -0.498723238706786E-005  0.453998493086450E-005 -0.236058432933659E-004 -0.112884602771105E-005  0.336045673254744E-004
 -0.227899543907557E-004 -0.924779076393600E-005 -0.660720092151103E-005  0.384423265398444E-005 -0.225384770668289E-004 -0.425049279838197E-005  0.338793210144163E-004
 -0.210773887901708E-004 -0.144650027634444E-004 -0.829324468520898E-005  0.221828940731370E-005 -0.206147257784932E-004 -0.726006493589132E-005  0.339519828660480E-004
 -0.177478607155214E-004 -0.193418477872813E-004 -0.965690242198648E-005 -0.437378565908482E-006 -0.179147123255744E-004 -0.976639132527263E-005  0.337307321863191E-004
 -0.128802880011850E-004 -0.230435641791203E-004 -0.102113865578484E-004 -0.397674532290931E-005 -0.146958449810185E-004 -0.114543860699865E-004  0.331187254778761E-004
 -0.700003985963831E-005 -0.248199144550883E-004 -0.954646030368232E-005 -0.795197034337512E-005 -0.113346444270819E-004 -0.121735998221146E-004  0.320294223402163E-004
 -0.988320323690367E-006 -0.242680110766347E-004 -0.752455444022120E-005 -0.116879495560858E-004 -0.822263582622376E-005 -0.119778661566261E-004  0.304041911653833E-004
  0.417228456387312E-005 -0.214971310324108E-004 -0.439331545161063E-005 -0.144806787842435E-004 -0.565804227982955E-005 -0.110959008959790E-004  0.282274050638028E-004
  0.771128181761713E-005 -0.171022937625774E-004 -0.741356357128693E-006 -0.158322148524468E-004 -0.377860076269793E-005 -0.984647110914986E-005  0.255344286077313E-004
  0.929844509672308E-005 -0.119546099269407E-004  0.268965225636390E-005 -0.156043197655693E-004 -0.255853757457754E-005 -0.853772074675578E-005  0.224094130602633E-004
  0.909177116392811E-005 -0.691449009593729E-005  0.524310785610032E-005 -0.140185924139392E-004 -0.185991949437598E-005 -0.739312085362255E-005  0.189738454233542E-004
  0.761166119621900E-005 -0.260224871939472E-005  0.652426697159156E-005 -0.115190915709980E-004 -0.150552843698484E-005 -0.652605342534470E-005  0.153727792119616E-004
  0.552971585396231E-005  0.691104897117951E-006  0.645513924198987E-005 -0.858098855367705E-005 -0.133943534180072E-005 -0.595770016249726E-005  0.117856014103664E-004
  0.347555985591216E-005  0.295375616843475E-005  0.522120589936679E-005 -0.555675913755343E-005 -0.125744238078106E-005 -0.565647433709441E-005  0.868971849632641E-005
  0.192136286831688E-005  0.432464762711544E-005  0.317023960504658E-005 -0.261044444430766E-005 -0.120922204212343E-005 -0.557631545566227E-005  0.759559510958264E-005
  0.114483587295605E-005  0.495899546103436E-005  0.722094877247977E-006  0.260192298492259E-006 -0.118540012055531E-005 -0.568119554587057E-005  0.772946867747309E-005
  0.123554255645523E-005  0.493738960771782E-005 -0.168483799034804E-005  0.314407817805586E-005 -0.120380046031115E-005 -0.595376201464679E-005  0.840770533350155E-005
  0.210855512183728E-005  0.423819898143905E-005 -0.362093710424585E-005  0.611613775693493E-005 -0.130249516844473E-005 -0.639165497324034E-005  0.982504295837672E-005
  0.351206169679888E-005  0.277203621124185E-005 -0.469489057279051E-005  0.914645766091951E-005 -0.153953588715442E-005 -0.699515294142742E-005  0.120385813665904E-004
  0.504158032271576E-005  0.463658439850231E-006 -0.460800009382563E-005  0.120459529422666E-004 -0.199340745811242E-005 -0.774887442916437E-005  0.146311860910205E-004
  0.618662194380942E-005 -0.264600038025445E-005 -0.323219897155076E-005  0.144713830386944E-004 -0.275570144430572E-005 -0.860141099784707E-005  0.172300089485324E-004
  0.642674644101649E-005 -0.631777523538124E-005 -0.682711192398941E-006  0.160006870581248E-004 -0.391062286619118E-005 -0.945048734039652E-005  0.196441719753043E-004
  0.536587594968891E-005 -0.100947705493214E-004  0.265855518927202E-005  0.162645211754246E-004 -0.550377805536267E-005 -0.101430731724888E-004  0.217775214011085E-004
  0.286293956166597E-005 -0.133711653980179E-004  0.620207687730711E-005  0.150898875326028E-004 -0.751095604804859E-005 -0.104977392071316E-004  0.235880778593187E-004
 -0.897838555761347E-006 -0.155379044302851E-004  0.929030671453019E-005  0.125956641407557E-004 -0.982334495569329E-005 -0.103461660297466E-004  0.250735508248804E-004
 -0.543648429101061E-005 -0.161553767407911E-004  0.113739090915242E-004  0.919276737173231E-005 -0.122600813202461E-004 -0.958033932666206E-005  0.262611250435969E-004
 -0.101054755500291E-004 -0.150849332291117E-004  0.121575644565020E-004  0.548154781216591E-005 -0.146076035402216E-004 -0.818631023163219E-005  0.271966076033557E-004
 -0.142706621848602E-004 -0.125265703840423E-004  0.116584735059787E-004  0.208549228935275E-005 -0.166714999988144E-004 -0.625140805173483E-005  0.279343456155885E-004
 -0.174771298730153E-004 -0.895060197590217E-005  0.101600136428055E-004 -0.512531169012620E-006 -0.183218148946304E-004 -0.394372550205802E-005  0.285293545449975E-004
 -0.195420505350303E-004 -0.495625131327626E-005  0.808872233346017E-005 -0.207072433778164E-005 -0.195172847135743E-004 -0.147513054379037E-005  0.290318914838479E-004
 -0.205522750247113E-004 -0.111606528242753E-005  0.587147198640788E-005 -0.259823368139522E-005 -0.203045468590981E-004  0.937152548089621E-006  0.294837995567882E-004
 -0.207851622424334E-004  0.213750055810531E-005  0.382810646668201E-005 -0.228859833513249E-005 -0.207968574275564E-004  0.309856552028749E-005  0.299163762538381E-004
 -0.205973355723535E-004  0.455417740104527E-005  0.212777992733559E-005 -0.141883202650722E-005 -0.211407951701520E-004  0.485036817060632E-005  0.303503186968166E-004
 -0.203260580827274E-004  0.604132262513307E-005  0.802835259957456E-006 -0.258891135923719E-006 -0.214786297501391E-004  0.606951609935547E-005  0.307974774844155E-004
 -0.202275142701709E-004  0.660058967580509E-005 -0.208162180375082E-006  0.981481260241600E-006 -0.219123533823779E-004  0.666083286374564E-005  0.312630899950073E-004
 -0.204500930288311E-004  0.625943460428901E-005 -0.101798701640175E-005  0.216424435882854E-005 -0.224739251080852E-004  0.655019596305357E-005  0.317470093545748E-004
 -0.249677672778208E-004 -0.371388133709906E-005 -0.850204565107130E-006  0.225170382844090E-005 -0.196417648392373E-004 -0.312641899975907E-005  0.321400414603751E-004
 -0.250829700897078E-004 -0.500882237085041E-005 -0.221925637701585E-005  0.290095941462080E-005 -0.197527186988164E-004 -0.372631212269196E-005  0.325718721517388E-004
 -0.249772726968599E-004 -0.718786830856201E-005 -0.360910613003025E-005  0.328289352136562E-005 -0.195299522793284E-004 -0.474432846659405E-005  0.329547352780748E-004
 -0.244624596555182E-004 -0.101555529125784E-004 -0.505278126459944E-005  0.325362340258882E-005 -0.188792371498909E-004 -0.607670131986722E-005  0.332591855865527E-004
 -0.232885777148396E-004 -0.137237631859777E-004 -0.652283807940652E-005  0.267219507657241E-005 -0.177233062510103E-004 -0.755312199294447E-005  0.334449677942563E-004
 -0.212033483964228E-004 -0.175796107179612E-004 -0.790659876454738E-005  0.142321151208089E-005 -0.160404489248084E-004 -0.895168964678294E-005  0.334606717571363E-004
 -0.180381590529862E-004 -0.212785399224270E-004 -0.900127974733659E-005 -0.538935468998873E-006 -0.138966081511982E-004 -0.100342566110685E-004  0.332452675688108E-004
 -0.138011994865926E-004 -0.242866196460432E-004 -0.954507523860286E-005 -0.313680973676937E-005 -0.114558386731408E-004 -0.105979643003378E-004  0.327325262043414E-004
 -0.874111492966748E-005 -0.260798651027829E-004 -0.928951369715785E-005 -0.613447566834491E-005 -0.895902025656342E-005 -0.105284481379051E-004  0.318586565626126E-004
 -0.334132515034573E-005 -0.262789173005692E-004 -0.809604102531162E-005 -0.914994658382225E-005 -0.667228196984002E-005 -0.983433258731206E-005  0.305719894496341E-004
  0.177243941965174E-005 -0.247691537106475E-004 -0.601800314335905E-005 -0.117288251714721E-004 -0.482163908212990E-005 -0.864670055496729E-005  0.288429978720096E-004
  0.598915165396797E-005 -0.217506788126519E-004 -0.332539932717869E-005 -0.134609051327654E-004 -0.353814747165509E-005 -0.718095211173882E-005  0.266719709326316E-004
  0.887623770223807E-005 -0.176891783804043E-004 -0.451962685092309E-006 -0.140936744397334E-004 -0.283437045186949E-005 -0.567545566392831E-005  0.240924010572192E-004
  0.102851216744780E-004 -0.131844413049300E-004  0.211803430495080E-005 -0.135929942620167E-004 -0.261878686522989E-005 -0.433054102532707E-005  0.211689527623181E-004
  0.103619518050301E-004 -0.881202863508459E-005  0.397657415775920E-005 -0.121262655426334E-004 -0.273781014505640E-005 -0.326987319900730E-005  0.179921676933829E-004
  0.947160547818056E-005 -0.500019476390360E-005  0.488297960104952E-005 -0.998138776990875E-005 -0.302561266407022E-005 -0.253286977666124E-005  0.146768791372312E-004
  0.807769264676332E-005 -0.198011973051412E-005  0.479363369169147E-005 -0.746204087372203E-005 -0.334301938429011E-005 -0.209349377396755E-005  0.113945918316956E-004
  0.662777212067103E-005  0.190701307374717E-006  0.383671026805241E-005 -0.480268274223478E-005 -0.359621923634849E-005 -0.189165098776412E-005  0.859392468797645E-005
  0.547473260120248E-005  0.155999455467082E-005  0.225860434802005E-005 -0.212932578405147E-005 -0.373706195687501E-005 -0.186361791378233E-005  0.719758500517928E-005
  0.483952359201992E-005  0.220396215110890E-005  0.369782598683066E-006  0.530941790068038E-006 -0.375308317279180E-005 -0.196310789999505E-005  0.681933482608253E-005
  0.480234940597205E-005  0.217132582316430E-005 -0.149582629070022E-005  0.320521856639557E-005 -0.365664869269649E-005 -0.217042254178930E-005  0.676324567659827E-005
  0.530659681576274E-005  0.146288266228818E-005 -0.300992627235047E-005  0.591478281791216E-005 -0.347881813348320E-005 -0.249123725181565E-005  0.704426833279625E-005
  0.616798042239898E-005  0.484303856832310E-007 -0.387862270345790E-005  0.861960777914554E-005 -0.326868680104287E-005 -0.294736139642554E-005  0.993816103505732E-005
  0.709261966232731E-005 -0.208725117781544E-005 -0.388039572651578E-005  0.111846924250892E-004 -0.309485723721854E-005 -0.356185977966539E-005  0.129020843487939E-004
  0.771397619257102E-005 -0.488590078134699E-005 -0.291243407644671E-005  0.133813245309682E-004 -0.304374015030220E-005 -0.434146002375929E-005  0.156742164375734E-004
  0.765521956783363E-005 -0.816728678872869E-005 -0.103179941263541E-005  0.149285773430628E-004 -0.321035628492541E-005 -0.526064022702204E-005  0.182067940229433E-004
  0.661154762432543E-005 -0.116139529945601E-004  0.152951452496963E-005  0.155675591064043E-004 -0.368100449647035E-005 -0.625297616075413E-005  0.204653583722205E-004
  0.443242781280775E-005 -0.148042308269400E-004  0.439304694624017E-005  0.151466189320181E-004 -0.451177531454497E-005 -0.721445806793623E-005  0.224311786068383E-004
  0.117531499460013E-005 -0.172915731551335E-004  0.710804430796931E-005  0.136866820182637E-004 -0.571035387543082E-005 -0.802004772909352E-005  0.241039060808871E-004
 -0.289330062944686E-005 -0.187083986166447E-004  0.925357936497297E-005  0.113991858135959E-004 -0.722853246453464E-005 -0.854953296494637E-005  0.255009796120270E-004
 -0.735624745369257E-005 -0.188596277143435E-004  0.105357774368988E-004  0.864556787564769E-005 -0.896926410053593E-005 -0.871513742930253E-005  0.266540549779797E-004
 -0.117468723920958E-004 -0.177722007083642E-004  0.108465232291752E-004  0.585072242711012E-005 -0.108063838220002E-004 -0.848233426654992E-005  0.276036028491949E-004
 -0.156594202511174E-004 -0.156836041351436E-004  0.102649493134166E-004  0.340151797740246E-005 -0.126108654827944E-004 -0.787842495461096E-005  0.283933781686087E-004
 -0.188317799553183E-004 -0.129763731646213E-004  0.900629034450846E-005  0.156602281185591E-005 -0.142752976393112E-004 -0.698763469914731E-005  0.290655336931705E-004
 -0.211773898855319E-004 -0.100857383234135E-004  0.734257646491701E-005  0.457298190444308E-006 -0.157300191947517E-004 -0.593594557213771E-005  0.296571225225973E-004
 -0.227643288871274E-004 -0.741362548205475E-005  0.552626352061431E-005  0.448066248830575E-007 -0.169468963308403E-004 -0.487061267659798E-005  0.301976630983535E-004
 -0.237587558861116E-004 -0.527391047788152E-005  0.373989255220822E-005  0.197920636175736E-006 -0.179309099626640E-004 -0.393981152144797E-005  0.307080653700724E-004
 -0.243571933444422E-004 -0.387611987290579E-005  0.207896472406105E-005  0.737982223833926E-006 -0.187025463063682E-004 -0.327583080895777E-005  0.312005489763594E-004
 -0.247275158563645E-004 -0.333859692543522E-005  0.561207205431231E-006  0.147953468940187E-005 -0.192763333491433E-004 -0.298263815298107E-005  0.316791199994647E-004
 -0.249677672778208E-004 -0.371388133709906E-005 -0.850204565107130E-006  0.225170382844090E-005 -0.196417648392373E-004 -0.312641899975907E-005  0.321400414603751E-004
 -0.232040183791951E-004 -0.153425591205780E-004 -0.721042380077227E-006  0.233075626601528E-005 -0.127246963328521E-004 -0.853322694647468E-005  0.317651095460369E-004
 -0.229286444894157E-004 -0.163376183150096E-004 -0.221353234668155E-005  0.230205769622623E-005 -0.126047691018930E-004 -0.876036093292970E-005  0.320697333239830E-004
 -0.221479696135632E-004 -0.178868721821120E-004 -0.365055327049281E-005  0.206691613877595E-005 -0.121553804366675E-004 -0.906467216930358E-005  0.322899893162723E-004
 -0.207856739268370E-004 -0.198601451477606E-004 -0.499463535435358E-005  0.152197421232920E-005 -0.113710413533342E-004 -0.937571962787082E-005  0.324006505647409E-004
 -0.187624696877752E-004 -0.220573777293356E-004 -0.617886269361129E-005  0.593521127844562E-006 -0.102731219710778E-004 -0.959676286300807E-005  0.323702542747408E-004
 -0.160320337455043E-004 -0.242149138127789E-004 -0.710429436905692E-005 -0.746046603231344E-006 -0.892063185703478E-005 -0.962097785193772E-005  0.321623846903899E-004
 -0.126201588098072E-004 -0.260272447771830E-004 -0.765067800013579E-005 -0.246053477363917E-005 -0.741422567473464E-005 -0.935405594259926E-005  0.317380349097887E-004
 -0.865531161258937E-005 -0.271876460989148E-004 -0.770193134893970E-005 -0.443796974533612E-005 -0.588913014320372E-005 -0.873832813411753E-005  0.310592480100132E-004
 -0.437667729802221E-005 -0.274436750684967E-004 -0.718230891776809E-005 -0.649319137131660E-005 -0.449569008620743E-005 -0.777155929205514E-005  0.300939186608109E-004
 -0.110041428864959E-006 -0.266540298496568E-004 -0.609255396773031E-005 -0.839125345014040E-005 -0.337134953947317E-005 -0.651324745096560E-005  0.288211818451663E-004
  0.378751207249596E-005 -0.248276730707473E-004 -0.453160550076412E-005 -0.989018521963850E-005 -0.261222459172443E-005 -0.507464825206370E-005  0.272365235927044E-004
  0.700006906384488E-005 -0.221290694549756E-004 -0.269212443569263E-005 -0.107921320453918E-004 -0.225359769227005E-005 -0.359478707408719E-005  0.253560216293186E-004
  0.931980889778279E-005 -0.188444258710220E-004 -0.827374227505935E-006 -0.109858139063895E-004 -0.226587650033695E-005 -0.220976972524932E-005  0.232191046410078E-004
  0.106863333853708E-004 -0.153192666778194E-004  0.801203261652776E-006 -0.104649968925187E-004 -0.256660268144420E-005 -0.102542095656253E-005  0.208905421255563E-004
  0.111871978344143E-004 -0.118883221414838E-004  0.197860003750273E-005 -0.931700945784374E-005 -0.304346641061763E-005 -0.101179135271586E-006  0.184633515323878E-004
  0.110234111374255E-004 -0.882033119155496E-005  0.257622756043927E-005 -0.768747437018479E-005 -0.357970381192390E-005  0.551303852580235E-006  0.160656889809407E-004
  0.104546188148277E-004 -0.629158006401674E-005  0.256802232100300E-005 -0.573595321839859E-005 -0.407458706217210E-005  0.957479483540842E-006  0.138700596601023E-004
  0.974235211513538E-005 -0.438972311485225E-005  0.202365799178810E-005 -0.359855576733284E-005 -0.445464766953391E-005  0.116250220668341E-005  0.120824079636786E-004
  0.910459016763469E-005 -0.313834691873639E-005  0.108693976163297E-005 -0.136832342002993E-005 -0.467611720214146E-005  0.121354353388648E-005  0.108679605424499E-004
  0.868690784299535E-005 -0.252847019186296E-005 -0.511404311224137E-007  0.903704863012229E-006 -0.472172180202006E-005  0.114623400682463E-005  0.102719651256950E-004
  0.854899761346559E-005 -0.254394256780762E-005 -0.117840200330490E-005  0.319093364580832E-005 -0.459573962064595E-005  0.977362103811959E-006  0.102859115197462E-004
  0.866250540468237E-005 -0.317260839024321E-005 -0.208511187072272E-005  0.546540116069014E-005 -0.432037287746948E-005  0.704219382287571E-006  0.109594143811566E-004
  0.891764879151935E-005 -0.440120303961463E-005 -0.258695052717567E-005  0.767322836189637E-005 -0.393415454047648E-005  0.309378567490324E-006  0.123066987835330E-004
  0.913862549490445E-005 -0.619710219154493E-005 -0.254893340169756E-005  0.971998549623954E-005 -0.349133089832114E-005 -0.230353154195145E-006  0.141288442673800E-004
  0.910925789448793E-005 -0.848462260574728E-005 -0.190886803211337E-005  0.114720475416393E-004 -0.306023627290566E-005 -0.932855640016878E-006  0.161486796058670E-004
  0.860934837705894E-005 -0.111257932130301E-004 -0.695208281617997E-006  0.127758238683994E-004 -0.271842724631630E-005 -0.179981310961719E-005  0.181750142524900E-004
  0.745791630289886E-005 -0.139157663381977E-004  0.968193320110681E-006  0.134912915381046E-004 -0.254390779345365E-005 -0.280892500862116E-005  0.201006535591386E-004
  0.555493043234547E-005 -0.165989391328925E-004  0.287631088305707E-005  0.135306737839232E-004 -0.260342679104787E-005 -0.391151098104947E-005  0.218678250315752E-004
  0.291012307151563E-005 -0.189056710981882E-004  0.477693249124899E-005  0.128898633928798E-004 -0.294049947143673E-005 -0.503695854822657E-005  0.234486528256458E-004
 -0.351105226067010E-006 -0.206014398822698E-004  0.641799165838830E-005  0.116609715481896E-004 -0.356636669319610E-005 -0.610336383279917E-005  0.248356318974268E-004
 -0.400878418323456E-005 -0.215346760009083E-004  0.759577375324499E-005  0.100201037248719E-004 -0.445683921696192E-005 -0.703209450623870E-005  0.260358890908995E-004
 -0.779155954507724E-005 -0.216686665735851E-004  0.819016890113295E-005  0.819299925752740E-005 -0.555590672784472E-005 -0.776263459256905E-005  0.270665980375705E-004
 -0.114297456974633E-004 -0.210877615924366E-004  0.817729293458384E-005  0.640900794922830E-005 -0.678532819890944E-005 -0.826396072219557E-005  0.279507954024556E-004
 -0.147024320291281E-004 -0.199769789042328E-004  0.761777753948076E-005  0.485753936178580E-005 -0.805732609002319E-005 -0.853972917144903E-005  0.287135606679106E-004
 -0.174661453496116E-004 -0.185830389945330E-004  0.662744208117799E-005  0.365885095190544E-005 -0.928696096516658E-005 -0.862654129022889E-005  0.293789691552191E-004
 -0.196596827001637E-004 -0.171692261600860E-004  0.534178177254908E-005  0.285448103564818E-005 -0.104010226935264E-004 -0.858573252027188E-005  0.299675727668496E-004
 -0.212878594295087E-004 -0.159764864358106E-004  0.388544541394739E-005  0.241519883707073E-005 -0.113415889559395E-004 -0.849127803247627E-005  0.304947246485457E-004
 -0.223928070832593E-004 -0.151973903970965E-004  0.235367480090018E-005  0.225935112915014E-005 -0.120646938856683E-004 -0.841605604880352E-005  0.309695917251440E-004
 -0.230224026263751E-004 -0.149635837229850E-004  0.807302996895001E-006  0.227364185433693E-005 -0.125357040145805E-004 -0.841878547683258E-005  0.313945610588330E-004
 -0.232040183791951E-004 -0.153425591205780E-004 -0.721042380077227E-006  0.233075626601528E-005 -0.127246963328521E-004 -0.853322694647468E-005  0.317651095460369E-004
 -0.154696456729543E-004 -0.241422588086205E-004 -0.636861137035834E-006  0.239230813030926E-005 -0.544307023141010E-005 -0.851547570136030E-005  0.304483301446327E-004
 -0.150757295050904E-004 -0.246714981930863E-004 -0.172643151552831E-005  0.186190746878495E-005 -0.533424583782679E-005 -0.848657019018581E-005  0.306087368420992E-004
 -0.141975036067066E-004 -0.253734527150702E-004 -0.274434363239671E-005  0.123801840430648E-005 -0.504935817038051E-005 -0.835893331909575E-005  0.306712841096401E-004
 -0.128367627021029E-004 -0.261673517389982E-004 -0.364195775937334E-005  0.482515876374488E-006 -0.460695404042744E-005 -0.811070944403497E-005  0.306213522329961E-004
 -0.110114975222654E-004 -0.269415975606838E-004 -0.436796356926003E-005 -0.421844175526064E-006 -0.404169940125334E-005 -0.771697518045860E-005  0.304423668461761E-004
 -0.876566906481397E-005 -0.275649834745891E-004 -0.487128669252151E-005 -0.146529157778874E-005 -0.340346379966553E-005 -0.715641294249616E-005  0.301169889757903E-004
 -0.617727001392876E-005 -0.279028811625215E-004 -0.510767824104831E-005 -0.260776495298470E-005 -0.275383992669333E-005 -0.641889927246864E-005  0.296290330402384E-004
 -0.336101698242403E-005 -0.278367448368752E-004 -0.504908602793592E-005 -0.378006788316549E-005 -0.215951226584878E-005 -0.551170304409469E-005  0.289655324974779E-004
 -0.462983156561330E-006 -0.272841992216597E-004 -0.469352584241121E-005 -0.489060584882328E-005 -0.168327179621660E-005 -0.446271551112264E-005  0.281191660597404E-004
  0.235353497223974E-005 -0.262153947063406E-004 -0.407227471283641E-005 -0.583752551895680E-005 -0.137430965788595E-005 -0.331934554765766E-005  0.270907701214505E-004
  0.492897244005578E-005 -0.246612226624103E-004 -0.325126423743617E-005 -0.652439612461589E-005 -0.126000811601417E-005 -0.214279926009115E-005  0.258915987597480E-004
  0.713057019075916E-005 -0.227106908832072E-004 -0.232491128401076E-005 -0.687587490703751E-005 -0.134150111560174E-005 -0.999041117759543E-006  0.245451698742993E-004
  0.887187786219534E-005 -0.204976450299277E-004 -0.140285086925388E-005 -0.684940576828276E-005 -0.159405127336968E-005  0.512349272317264E-007  0.230885668722347E-004
  0.101234864441268E-004 -0.181800395506198E-004 -0.592417098245981E-006 -0.643981331248323E-005 -0.197223963405179E-005  0.961146579426083E-006  0.215729080334740E-004
  0.109125560007746E-004 -0.159171960679682E-004  0.189556564735850E-007 -0.567596167633117E-005 -0.241828010720035E-005  0.170250767606073E-005  0.200627727744883E-004
  0.113118278093725E-004 -0.138505343371976E-004  0.377328409080328E-006 -0.461110166146582E-005 -0.287137396904831E-005  0.226625989906580E-005  0.186338102861648E-004
  0.114214714648716E-004 -0.120915771792808E-004  0.469264727734847E-006 -0.331040197217562E-005 -0.327593660360518E-005  0.265890186982354E-005  0.173673371866122E-004
  0.113483929675970E-004 -0.107181770609504E-004  0.321700912081820E-006 -0.183959989203056E-005 -0.358739369948111E-005  0.289644596421563E-005  0.163412780561918E-004
  0.111871140222358E-004 -0.977745004367056E-005 -0.413022547516774E-008 -0.257822404358616E-006 -0.377520818273901E-005  0.299768396031963E-005  0.156195093393128E-004
  0.110050963148207E-004 -0.929201278117408E-005 -0.422730568896703E-006  0.138421411601495E-005 -0.382372731629887E-005  0.297852017100631E-005  0.152442870660094E-004
  0.108338657573298E-004 -0.926626117279167E-005 -0.836382398881403E-006  0.304122325476988E-005 -0.373155338684570E-005  0.284826037779799E-005  0.152341717419475E-004
  0.106660249386482E-004 -0.968989217202701E-005 -0.114786251319791E-005  0.466771555293689E-005 -0.351043627532136E-005  0.260857782583672E-005  0.155832915383232E-004
  0.104579541919912E-004 -0.105377031532540E-004 -0.127294189172646E-005  0.621249252580530E-005 -0.318400340779140E-005  0.225495878212353E-005  0.162584406066965E-004
  0.101377923528016E-004 -0.117663738068202E-004 -0.115184769583295E-005  0.761587916067578E-005 -0.278622076092810E-005  0.178006411744428E-005  0.171990677445811E-004
