  0.114988272897012E-007  0.507868066118497E-007  0.733705880630990E-008 -0.371680453731798E-007  0.216290984182552E-008  0.549856097028493E-009  0.631410096040607E-007
  0.133152481776580E-007  0.513088501310886E-007  0.715152480061038E-008 -0.377853997997038E-007  0.214536711438468E-008 -0.118539496574803E-008  0.640721586120119E-007
  0.155268356072233E-007  0.518752391152021E-007  0.656536342773253E-008 -0.384985437606790E-007  0.194390783293383E-008 -0.294313011628170E-008  0.652473492842161E-007
  0.179801133755812E-007  0.524521830419623E-007  0.562540190800929E-008 -0.392759903632212E-007  0.152044777775666E-008 -0.467682098030919E-008  0.666401530892380E-007
  0.206295099767859E-007  0.529312663583574E-007  0.428094341350988E-008 -0.400123419395495E-007  0.852687611310903E-009 -0.632190193278758E-008  0.681339941336415E-007
  0.234211154340351E-007  0.532901984203233E-007  0.253326992653992E-008 -0.406783841389591E-007 -0.514793496651478E-010 -0.781652005997103E-008  0.697167604055345E-007
  0.262288195774615E-007  0.534052088757473E-007  0.432754304218067E-009 -0.411637605568087E-007 -0.114874088617723E-008 -0.908330167627933E-008  0.712185168917990E-007
  0.289569967270297E-007  0.532582005182841E-007 -0.197587435341769E-008 -0.414398110602664E-007 -0.237014350291578E-008 -0.100633213560000E-007  0.725892948488868E-007
  0.315439980959029E-007  0.528378622916379E-007 -0.458980111007867E-008 -0.414771831703450E-007 -0.362167802819466E-008 -0.107106818320660E-007  0.737667490332323E-007
  0.338792920530858E-007  0.521092934766691E-007 -0.734807633950931E-008 -0.412346645095102E-007 -0.480220521283146E-008 -0.109917718972644E-007  0.746433820167218E-007
  0.359480364405878E-007  0.510836476718180E-007 -0.100970237337551E-007 -0.407497010444919E-007 -0.580975767113841E-008 -0.109052177484376E-007  0.751876938817591E-007
  0.376678073672293E-007  0.497713721899833E-007 -0.127922706192458E-007 -0.400360764529218E-007 -0.656001571755343E-008 -0.104640155663250E-007  0.753501753045101E-007
  0.390206586989369E-007  0.482810496498700E-007 -0.152791982031529E-007 -0.392005216531771E-007 -0.698632582228731E-008 -0.971847292480482E-008  0.751866347150405E-007
  0.399881692360604E-007  0.466606286858206E-007 -0.175040041765905E-007 -0.382948108798082E-007 -0.705787307377143E-008 -0.871520391673306E-008  0.747052282650631E-007
  0.406047405440094E-007  0.449994903792207E-007 -0.194020621692220E-007 -0.374523756399166E-007 -0.677882566363033E-008 -0.751349284039563E-008  0.740033576498392E-007
  0.516549027913112E-007  0.323635557388678E-007 -0.292890825203932E-007 -0.241344960285502E-007 -0.177382815668255E-007 -0.111133543676530E-007  0.746740301675302E-007
  0.507389667911572E-007  0.281348394647999E-007 -0.315393635952531E-007 -0.215135465314933E-007 -0.154615173491330E-007 -0.835122463931215E-008  0.715770669507146E-007
  0.494356951278405E-007  0.243122486538685E-007 -0.329596409275216E-007 -0.197339494766579E-007 -0.125199909195929E-007 -0.577338955621129E-008  0.685097837009914E-007
  0.480119813164668E-007  0.211338499318857E-007 -0.336734761787703E-007 -0.188406323539174E-007 -0.922743574639362E-008 -0.341985058992890E-008  0.657866841383788E-007
  0.466026546262102E-007  0.188612117189402E-007 -0.336586038860625E-007 -0.188719390150092E-007 -0.585346641838052E-008 -0.128559986005360E-008  0.635290553638099E-007
  0.453530658544523E-007  0.176931109815013E-007 -0.330188471167300E-007 -0.196910005828604E-007 -0.261525018379117E-008  0.666545315840994E-009  0.618655649344127E-007
  0.442351867370962E-007  0.177516554586783E-007 -0.317718372541958E-007 -0.211467065233840E-007  0.345277764496279E-009  0.251164102991770E-008  0.607714725195054E-007
  0.431778913223049E-007  0.190796762389610E-007 -0.299972541498155E-007 -0.230092463350971E-007  0.294487624114768E-008  0.432728827542526E-008  0.602528282206631E-007
  0.419722527333061E-007  0.216299875868123E-007 -0.277168395816366E-007 -0.250428340401852E-007  0.512650250148491E-008  0.619048418723626E-008  0.602215303975688E-007
  0.404378752923644E-007  0.251818155469528E-007 -0.250102106451101E-007 -0.270508538353771E-007  0.684621887210971E-008  0.817520254188220E-008  0.606200669319214E-007
  0.383104280854878E-007  0.294739039219913E-007 -0.219666770141786E-007 -0.288340489279209E-007  0.806111388584043E-008  0.102962112391017E-007  0.613120611407315E-007
  0.354490812127047E-007  0.340813447771406E-007 -0.186692266448327E-007 -0.302451337268440E-007  0.871076242485185E-008  0.125114071971033E-007  0.621196810719574E-007
  0.317650654134099E-007  0.386099894213118E-007 -0.152202318884116E-007 -0.311802018648581E-007  0.874985302419761E-008  0.147062283124640E-007  0.628532933564386E-007
  0.272766084261912E-007  0.426037550333647E-007 -0.117256531529182E-007 -0.315946968225598E-007  0.816598438187991E-008  0.167033779442893E-007  0.632760654795281E-007
  0.222073821039391E-007  0.456876734041001E-007 -0.827457897345575E-008 -0.314810914953261E-007  0.702039314117420E-008  0.182880016352475E-007  0.632056340728690E-007
  0.168388682791979E-007  0.476672239199168E-007 -0.498397565928657E-008 -0.309141648308821E-007  0.546049261659826E-008  0.192829518544821E-007  0.625701334821857E-007
  0.115062373370180E-007  0.484597237825024E-007 -0.187228653972363E-008 -0.299962053005951E-007  0.368157357937456E-008  0.195608970522967E-007  0.613266771052764E-007
  0.655683860651602E-008  0.481357629955067E-007  0.970049606444880E-009 -0.288114858949984E-007  0.194031519861610E-008  0.190757484672783E-007  0.595080934263485E-007
  0.231502462890401E-008  0.470156476736941E-007  0.357275214702143E-008 -0.275356995274940E-007  0.478662965572801E-009  0.179296540737270E-007  0.573608685643641E-007
 -0.101280729446104E-008  0.454331838214243E-007  0.594566060966779E-008 -0.263385628023595E-007 -0.509772493094948E-009  0.162699571446999E-007  0.551128772032387E-007
 -0.323714006163613E-008  0.437205412052864E-007  0.811507281869095E-008 -0.253030806079736E-007 -0.882025394026886E-009  0.142571516084126E-007  0.529377458295210E-007
 -0.439475503833171E-008  0.422749306554977E-007  0.101490048513914E-007 -0.245798893321255E-007 -0.629130497120465E-009  0.120671726909249E-007  0.511431691821109E-007
 -0.436043601663873E-008  0.413343063318686E-007  0.119935543881457E-007 -0.242600523013442E-007  0.239026293928091E-009  0.978517362264779E-008  0.498738062784030E-007
 -0.324382339860750E-008  0.410468724271475E-007  0.136869069370502E-007 -0.244223856952468E-007  0.157268094563846E-008  0.742366645354164E-008  0.492907651784424E-007
 -0.109543751808420E-008  0.414606825472176E-007  0.151096300278227E-007 -0.251119655831567E-007  0.316099299741152E-008  0.493170663362968E-008  0.494944737869725E-007
  0.192651756817512E-008  0.424763644295002E-007  0.162353606648311E-007 -0.263227216670333E-007  0.473846705866605E-008  0.221687187855809E-008  0.505139941038127E-007
  0.574540016551501E-008  0.439938683960900E-007  0.168690305955779E-007 -0.280686986163298E-007  0.600424936693354E-008 -0.799518128689586E-009  0.523948397324125E-007
  0.101969407696215E-007  0.458339355973393E-007  0.168711317837346E-007 -0.302418949759187E-007  0.665937622747126E-008 -0.413411513333253E-008  0.550846339220742E-007
  0.151383928599984E-007  0.477028481301693E-007  0.160665991283451E-007 -0.326524681283738E-007  0.644590857011174E-008 -0.771400816619545E-008  0.583852468800866E-007
  0.203540751341001E-007  0.494889514236441E-007  0.143701885723171E-007 -0.351677472773358E-007  0.521228347980557E-008 -0.113860815119316E-007  0.622595116666986E-007
  0.257122413289594E-007  0.508843428250668E-007  0.116488800196178E-007 -0.374200215942174E-007  0.290687468667522E-008 -0.148652610756850E-007  0.663449473999330E-007
  0.310103640918045E-007  0.517721331156952E-007  0.798675596955043E-008 -0.391672986570146E-007 -0.328116827688933E-009 -0.178671680257000E-007  0.704415062676553E-007
  0.360612240982981E-007  0.519628213945496E-007  0.345473923541001E-008 -0.401354288360883E-007 -0.423636993373782E-008 -0.201024937433060E-007  0.742174610643835E-007
  0.406659056528805E-007  0.513760335954478E-007 -0.168218894903521E-008 -0.401230734823011E-007 -0.840744458291377E-008 -0.213618277442438E-007  0.773761829111402E-007
  0.446480140909964E-007  0.499117613955083E-007 -0.714004898688525E-008 -0.390543601963708E-007 -0.123881712921879E-007 -0.215452894547984E-007  0.796184227733309E-007
  0.478541057504837E-007  0.476048262883542E-007 -0.126139440837092E-007 -0.369759943508554E-007 -0.157382667486160E-007 -0.206965031539563E-007  0.807742014527085E-007
  0.501539136889382E-007  0.445402095347548E-007 -0.177600262257888E-007 -0.341357887839442E-007 -0.180830824816350E-007 -0.189902416349754E-007  0.807598291872723E-007
  0.515238845339173E-007  0.408169704223593E-007 -0.223553795951798E-007 -0.307793547783257E-007 -0.192127081595633E-007 -0.166417526848478E-007  0.795858657321389E-007
  0.519771469113353E-007  0.366774705755090E-007 -0.262306921050555E-007 -0.273256016938290E-007 -0.190621153639471E-007 -0.139367379896734E-007  0.774601393020005E-007
  0.516549027913112E-007  0.323635557388678E-007 -0.292890825203932E-007 -0.241344960285502E-007 -0.177382815668255E-007 -0.111133543676530E-007  0.746740301675302E-007
  0.551406535056450E-007  0.153956319795363E-007 -0.320102709038848E-007 -0.450641520711449E-008 -0.298475047305095E-007 -0.833219792776133E-008  0.725818953285836E-007
  0.514708588660875E-007  0.881387772295661E-008 -0.334596626155385E-007  0.390927504808719E-009 -0.245959270211562E-007 -0.474160399738115E-008  0.666724462741879E-007
  0.475423066689550E-007  0.277957110253080E-008 -0.341609396248037E-007  0.342036797771906E-008 -0.185565848513767E-007 -0.201190255034001E-008  0.614192694808592E-007
  0.439437685111958E-007 -0.232158198149328E-008 -0.343309405996008E-007  0.451805478145290E-008 -0.124290185744802E-007 -0.222854770048757E-010  0.573096369756955E-007
  0.411645631325023E-007 -0.606096440532337E-008 -0.340430306568699E-007  0.379623135045453E-008 -0.674728597558020E-008  0.138977441352596E-008  0.543226852126867E-007
  0.394724457081915E-007 -0.813695882618740E-008 -0.333161152402425E-007  0.162177144855421E-008 -0.179971679599830E-008  0.241923613349321E-008  0.522075176228500E-007
  0.389259638887056E-007 -0.824647107914248E-008 -0.321656444168484E-007 -0.159011156283127E-008  0.235412334611713E-008  0.324499279857954E-008  0.508220824208929E-007
  0.393093321947175E-007 -0.618587105269211E-008 -0.305744461418758E-007 -0.537565343191640E-008  0.582406320766281E-008  0.406473826377488E-008  0.501516710585245E-007
  0.401592643328631E-007 -0.192491796471651E-008 -0.285332780582735E-007 -0.931967403362094E-008  0.878059131415509E-008  0.513517509749261E-008  0.502660838029939E-007
  0.408701752441269E-007  0.436840117624430E-008 -0.260575822507615E-007 -0.130761760179821E-007  0.113283993939581E-007  0.674032275062401E-008  0.512455307792079E-007
  0.407669771964330E-007  0.122564726730078E-007 -0.232100038232778E-007 -0.163550180883926E-007  0.134346583797743E-007  0.911061993008232E-008  0.530539739479792E-007
  0.392695772162411E-007  0.210093574560789E-007 -0.200471636851119E-007 -0.189545403505216E-007  0.148768795756887E-007  0.123238624114571E-007  0.554430165844044E-007
  0.359778193802335E-007  0.297899909145682E-007 -0.166666381689209E-007 -0.207045704246138E-007  0.153344208592358E-007  0.161921088531466E-007  0.579818911817669E-007
  0.308286878333258E-007  0.375847063684786E-007 -0.132168801497041E-007 -0.215374175636313E-007  0.145335268822664E-007  0.202620756004170E-007  0.601110103411669E-007
  0.241511605498993E-007  0.435538204028059E-007 -0.982110399879788E-008 -0.214722775613343E-007  0.123809755237021E-007  0.239057409614145E-007  0.613160826850659E-007
  0.165113396373842E-007  0.471162507402385E-007 -0.664022919196612E-008 -0.205948145323893E-007  0.906988597332808E-008  0.264738002973505E-007  0.611855710578186E-007
  0.871670227887693E-008  0.480571856866214E-007 -0.373348904000870E-008 -0.191296926944997E-007  0.506613278849022E-008  0.275113401111640E-007  0.595637397774247E-007
  0.147476874395844E-008  0.466407515167709E-007 -0.113280065649763E-008 -0.172952060435725E-007  0.974483452029046E-009  0.268866119450343E-007  0.565816222040202E-007
 -0.455990408077254E-008  0.434519553916722E-007  0.123171296040824E-008 -0.153469760620607E-007 -0.255491258822140E-008  0.248160838761896E-007  0.526132208757560E-007
 -0.897187724695633E-008  0.393611786197861E-007  0.340233101144468E-008 -0.135092833060284E-007 -0.498651489202020E-008  0.218169487420518E-007  0.482143981249567E-007
 -0.116702127994515E-007  0.351794871763758E-007  0.560205908241439E-008 -0.119693788024091E-007 -0.604930599729634E-008  0.184515379974669E-007  0.438551970184051E-007
 -0.125560311810087E-007  0.317137219400901E-007  0.788890093141900E-008 -0.109037876538679E-007 -0.557335192603283E-008  0.152477953212071E-007  0.399714287908965E-007
 -0.117921350087129E-007  0.293947739870029E-007  0.103385387746290E-007 -0.104147625705608E-007 -0.367483772390533E-008  0.124213104897243E-007  0.368098206257193E-007
 -0.957116709421569E-008  0.285103904062288E-007  0.129772241096772E-007 -0.106386845750741E-007 -0.620709114879594E-009  0.995884032967486E-008  0.347660888237913E-007
 -0.601494264999482E-008  0.289811584901071E-007  0.157044149885436E-007 -0.116594921858111E-007  0.320323498930196E-008  0.755043462674019E-008  0.340709793254181E-007
 -0.134952939059563E-008  0.305906480084662E-007  0.183667222347392E-007 -0.135936426796064E-007  0.724158363312031E-008  0.476629223406691E-008  0.349634313369870E-007
  0.425451008512101E-008  0.330179349282806E-007  0.206187817495261E-007 -0.164764235770038E-007  0.108188875661975E-007  0.120635466031190E-008  0.374725728106286E-007
  0.105385882609748E-007  0.358677143607320E-007  0.221521234828771E-007 -0.202458371643650E-007  0.132355549252932E-007 -0.336780568414341E-008  0.414938961726692E-007
  0.171891461107096E-007  0.387470802639035E-007  0.225868560863757E-007 -0.246535288249007E-007  0.138406586825958E-007 -0.888483522195060E-008  0.467785488917430E-007
  0.241442752548972E-007  0.414026771438470E-007  0.214451089474813E-007 -0.293347327756987E-007  0.121250254665764E-007 -0.149675256182454E-007  0.531098401437862E-007
  0.310517056506468E-007  0.435518055482285E-007  0.185743330454983E-007 -0.337268504109018E-007  0.795482609343050E-008 -0.209676879994716E-007  0.601115859595440E-007
  0.378046192085987E-007  0.449245978744238E-007  0.138890639411102E-007 -0.371905048133170E-007  0.152803822650598E-008 -0.261037650558540E-007  0.673152687497420E-007
  0.440991914542659E-007  0.453372588019091E-007  0.770720601093822E-008 -0.390654007982889E-007 -0.646367596607855E-008 -0.296257852977434E-007  0.741264258016837E-007
  0.497211263912602E-007  0.445373181218852E-007  0.444054952836461E-009 -0.388277156986693E-007 -0.150900919032504E-007 -0.309918952138385E-007  0.798809969004061E-007
  0.543630537114065E-007  0.424244494600922E-007 -0.716792842540978E-008 -0.362838799069304E-007 -0.231813703738369E-007 -0.300720733467940E-007  0.839916249286303E-007
  0.576774171485031E-007  0.389718194570423E-007 -0.144635010646504E-007 -0.316041540949576E-007 -0.296606865745131E-007 -0.271406744433534E-007  0.859800060433064E-007
  0.594347155072475E-007  0.342649416192208E-007 -0.208035183667173E-007 -0.252737186729341E-007 -0.337182753442150E-007 -0.227795863879946E-007  0.855801706661929E-007
  0.595065343410319E-007  0.285299872115010E-007 -0.258861630408396E-007 -0.180680643007266E-007 -0.349888471539101E-007 -0.177442669623976E-007  0.828811434656629E-007
  0.579816576598103E-007  0.221000100560691E-007 -0.295731683143424E-007 -0.108665759668214E-007 -0.335459230274780E-007 -0.127499705744787E-007  0.782988639093281E-007
  0.551406535056450E-007  0.153956319795363E-007 -0.320102709038848E-007 -0.450641520711449E-008 -0.298475047305095E-007 -0.833219792776133E-008  0.725818953285836E-007
  0.498777652686212E-007 -0.148212184962296E-008 -0.255807146361981E-007  0.159869256447700E-007 -0.388293329070695E-007  0.115638344206892E-008  0.686471531796280E-007
  0.427616185492366E-007 -0.899468257707641E-008 -0.246307652933706E-007  0.223966223324051E-007 -0.297835421146476E-007  0.411767680412839E-008  0.607093154796065E-007
  0.355636864766775E-007 -0.159046151361881E-007 -0.237427833306499E-007  0.258659397610589E-007 -0.204100249554199E-007  0.537112490620474E-008  0.551417468826216E-007
  0.293028968585006E-007 -0.218465160494184E-007 -0.231905306465989E-007  0.264446024590102E-007 -0.118120605599677E-007  0.549556893767094E-008  0.519612063669031E-007
  0.248169033628881E-007 -0.264670742796197E-007 -0.229936341711185E-007  0.245604336150174E-007 -0.469531135918886E-008  0.498946896900547E-008  0.499524473813475E-007
  0.225913479045434E-007 -0.293716113077534E-007 -0.229581046284229E-007  0.208528184198817E-007  0.702266371508335E-009  0.413540860084328E-008  0.482082456620732E-007
  0.228015272995100E-007 -0.300837181775993E-007 -0.228896029343825E-007  0.160128141696549E-007  0.457631654059461E-008  0.304843156692871E-008  0.464504144280380E-007
  0.251428192126165E-007 -0.282186564521575E-007 -0.225977701971540E-007  0.107197185807842E-007  0.749693402596554E-008  0.188134647990831E-008  0.447798069526272E-007
  0.289317196801320E-007 -0.234754932312411E-007 -0.220160285889476E-007  0.548718164661380E-008  0.101899527473782E-007  0.984328966783245E-009  0.435815943469115E-007
  0.332241682669985E-007 -0.157762982286187E-007 -0.210939840847483E-007  0.674223004211508E-009  0.131771530071647E-007  0.961414791898477E-009  0.434843931191210E-007
  0.367905437794586E-007 -0.544421166714482E-008 -0.198260431549130E-007 -0.346727128779456E-008  0.165676099400669E-007  0.252730629361901E-008  0.450018860364265E-007
  0.384992835736711E-007  0.674094622727249E-008 -0.181964309074979E-007 -0.674708920589403E-008  0.198665885388069E-007  0.619543536310723E-008  0.482114543113770E-007
  0.374432318914566E-007  0.195090422575495E-007 -0.162380968992800E-007 -0.901580289292295E-008  0.221482411097997E-007  0.119456739221479E-007  0.525409414432674E-007
  0.332346055533695E-007  0.313227723705304E-007 -0.140789502986768E-007 -0.101481892660058E-007  0.224209026263709E-007  0.190295074835690E-007  0.569768170860572E-007
  0.261810973232481E-007  0.406275590268327E-007 -0.119036514830151E-007 -0.101382288246333E-007  0.200621740018450E-007  0.261102207435481E-007  0.603637965354420E-007
  0.172244515178650E-007  0.462371967331246E-007 -0.988493045635220E-008 -0.912713245834162E-008  0.151350794754645E-007  0.316466455538047E-007  0.617110333630265E-007
  0.764652645286862E-008  0.476854574865598E-007 -0.818773212510952E-008 -0.738324366150034E-008  0.843519981289055E-008  0.344389752246990E-007  0.605162262378219E-007
 -0.121963023708416E-008  0.453000229068768E-007 -0.677612668666679E-008 -0.526932544958912E-008  0.119352455407841E-008  0.340426546682043E-007  0.569113309739473E-007
 -0.831306607433252E-008  0.400955248270750E-007 -0.549426847155640E-008 -0.313596976155895E-008 -0.525873737408546E-008  0.308826989835570E-007  0.515902841662359E-007
 -0.130809976177782E-007  0.334848939141611E-007 -0.412833264731516E-008 -0.123814733570541E-008 -0.988898494425883E-008  0.260529075336561E-007  0.454858615226567E-007
 -0.154264221773901E-007  0.269019197402380E-007 -0.241877926488510E-008  0.234806186139988E-009 -0.121179338536416E-007  0.208826695903896E-007  0.393268823582305E-007
 -0.154781791537709E-007  0.215259490137532E-007 -0.186928390203079E-009  0.115408693636852E-008 -0.117296557097802E-007  0.164794114344926E-007  0.333644562630508E-007
 -0.135627857560858E-007  0.179876613237019E-007  0.268188051488292E-008  0.149855584776051E-008 -0.889037635015054E-008  0.133339035210819E-007  0.276386271818337E-007
 -0.997477069044037E-008  0.165972320359869E-007  0.623664965391686E-008  0.106542989002578E-008 -0.396353063867460E-008  0.113578349950676E-007  0.227910894463711E-007
 -0.498237526130313E-008  0.170139795276923E-007  0.103223144586516E-007 -0.237908052755585E-009  0.242955871384506E-008  0.978527409234932E-008  0.200143672498479E-007
  0.111001793296321E-008  0.188257292164666E-007  0.146913028993821E-007 -0.266717164511135E-008  0.940893789558373E-008  0.765429895719421E-008  0.210088854636157E-007
  0.794838056520986E-008  0.213993821364688E-007  0.189238450430975E-007 -0.634615431237156E-008  0.158543889507315E-007  0.404486516650969E-008  0.270635074355755E-007
  0.151894388414023E-007  0.242760465621071E-007  0.224189180292795E-007 -0.113743681516499E-007  0.205130774014440E-007 -0.158375704101246E-008  0.341886051309631E-007
  0.225100451378617E-007  0.270633957506139E-007  0.244821754243613E-007 -0.175261813676968E-007  0.221794961616450E-007 -0.915920949881021E-008  0.399890477540576E-007
  0.296987809130158E-007  0.295625140248760E-007  0.244245723242859E-007 -0.242989983079653E-007  0.199295816277259E-007 -0.179787668461788E-007  0.437913002938135E-007
  0.366114035992338E-007  0.315830641141109E-007  0.217717043914618E-007 -0.307949363048723E-007  0.133895809285570E-007 -0.267654736939476E-007  0.518236120219696E-007
  0.431846616165487E-007  0.329234535938046E-007  0.164573035533533E-007 -0.359107584797283E-007  0.295248958453602E-008 -0.339851002307526E-007  0.619895933414225E-007
  0.492419890527813E-007  0.332979645342765E-007  0.897164369451938E-008 -0.385104233370583E-007 -0.101233156510452E-007 -0.381987253808734E-007  0.718230431575032E-007
  0.545969687080933E-007  0.324208734656952E-007  0.170639742414511E-009 -0.376946900763344E-007 -0.240342219566771E-007 -0.384877343278071E-007  0.803231852011978E-007
  0.588300660359704E-007  0.300439754746281E-007 -0.865565064448505E-008 -0.331501471050068E-007 -0.365839112487453E-007 -0.348132890887671E-007  0.864521155418845E-007
  0.614608903479613E-007  0.260493414744571E-007 -0.162678389072655E-007 -0.252631452341919E-007 -0.458567356977119E-007 -0.280255401480939E-007  0.893924564092675E-007
  0.619619505821663E-007  0.204867439733885E-007 -0.217770001059271E-007 -0.149868655027530E-007 -0.505881010875729E-007 -0.195422340270037E-007  0.886074105974191E-007
  0.601060284404474E-007  0.137393904623878E-007 -0.249093376788965E-007 -0.374331531982329E-008 -0.505229917394969E-007 -0.110664267281980E-007  0.843085158345148E-007
  0.559270846942661E-007  0.624414726428146E-008 -0.259184294545226E-007  0.700384992601915E-008 -0.462106101044115E-007 -0.392121408396456E-008  0.771739805292798E-007
  0.498777652686212E-007 -0.148212184962296E-008 -0.255807146361981E-007  0.159869256447700E-007 -0.388293329070695E-007  0.115638344206892E-008  0.686471531796280E-007
  0.377400424070168E-007 -0.137567094609045E-007 -0.118331567196362E-007  0.316301456233430E-007 -0.410045470464533E-007  0.149505237733732E-007  0.639743465143897E-007
  0.278920764060258E-007 -0.204687583279859E-007 -0.778503203171705E-008  0.378679773435266E-007 -0.285562504377664E-007  0.153558809499657E-007  0.565120344308671E-007
  0.181265434590512E-007 -0.265902063857663E-007 -0.521181428778317E-008  0.405465634795855E-007 -0.168892698288739E-007  0.134579835849213E-007  0.539101583511800E-007
  0.975812442297455E-008 -0.319840466840345E-007 -0.441647249876248E-008  0.400053361418499E-007 -0.715995103350407E-008  0.105759413500618E-007  0.534211357376492E-007
  0.384510580359813E-008 -0.364816879360779E-007 -0.502768924041922E-008  0.369009246889686E-007 -0.608890671362709E-010  0.760784868654154E-008  0.528128040521383E-007
  0.106968620179398E-008 -0.397283273287765E-007 -0.645629088570807E-008  0.320393334459216E-007  0.425089671713560E-008  0.480135674152972E-008  0.514603777816713E-007
  0.166056970552196E-008 -0.412393549518905E-007 -0.814345539182679E-008  0.263286546666874E-007  0.625329804913552E-008  0.191632571056167E-008  0.492866541263550E-007
  0.537375148321767E-008 -0.404529372247533E-007 -0.974524471715564E-008  0.205395517649866E-007  0.705908555885771E-008 -0.131403802730854E-008  0.463909621879550E-007
  0.115177396860639E-007 -0.368212120489959E-007 -0.111575701294734E-007  0.152017505482860E-007  0.815794698619855E-008 -0.472867674505836E-008  0.432217071666834E-007
  0.189977353359421E-007 -0.298623020487208E-007 -0.123701899335688E-007  0.105137396589486E-007  0.108488160123516E-007 -0.742397275015089E-008  0.406329993412529E-007
  0.264147183031494E-007 -0.194806648710858E-007 -0.133332554704863E-007  0.655923821709796E-008  0.156239451179661E-007 -0.796893785711200E-008  0.399427747690200E-007
  0.320983355248134E-007 -0.618205136531307E-008 -0.139304341524136E-007  0.340413354420153E-008  0.217977903216731E-007 -0.496476764996249E-008  0.421105767878880E-007
  0.345175438321370E-007  0.878181361634442E-008 -0.140919191102484E-007  0.119291315482337E-008  0.276063662246014E-007  0.217199938636652E-008  0.469954617451912E-007
  0.327623077846559E-007  0.234909475854394E-007 -0.138712497356264E-007  0.113996994858978E-009  0.308415540882477E-007  0.126520389315008E-007  0.533450344480456E-007
  0.268580298362129E-007  0.357015518611996E-007 -0.134995744245353E-007  0.250341069393463E-009  0.298090838735621E-007  0.243169627358034E-007  0.592439139297663E-007
  0.178819354674334E-007  0.435165877822998E-007 -0.132694991141967E-007  0.146890922203831E-008  0.240967898192455E-007  0.343249925201803E-007  0.628441615909896E-007
  0.762950762658212E-008  0.459834699898801E-007 -0.133569324190777E-007  0.338932493914031E-008  0.147583791945847E-007  0.402502656641093E-007  0.630544271332629E-007
 -0.195221621128111E-008  0.433022478304716E-007 -0.137019208161117E-007  0.551313938079407E-008  0.388215174374922E-008  0.409267269572765E-007  0.598370852708407E-007
 -0.935084988053361E-008  0.368463049179557E-007 -0.140318841593076E-007  0.740731947545181E-008 -0.621547052192082E-008  0.369361707781322E-007  0.543295357928165E-007
 -0.138227218088582E-007  0.285017362340706E-007 -0.139089567972438E-007  0.878906051533544E-008 -0.137513147026580E-007  0.300912468504541E-007  0.479266828603239E-007
 -0.153093784780768E-007  0.202858712512625E-007 -0.130006113792795E-007  0.959676759695885E-008 -0.177125662855267E-007  0.228020900039104E-007  0.415141087843997E-007
 -0.141883615271605E-007  0.136232619144518E-007 -0.110456319488173E-007  0.987879258121580E-008 -0.178351404328482E-007  0.169349428174722E-007  0.348021923844591E-007
 -0.109123910822794E-007  0.934617621207601E-008 -0.795405088274167E-008  0.967023455059199E-008 -0.142899882035689E-007  0.134554136565160E-007  0.273060529663314E-007
 -0.595005994631547E-008  0.751877229218547E-008 -0.373683779762855E-008  0.890919035248546E-008 -0.762902074236199E-008  0.120730495562650E-007  0.196399322035123E-007
  0.319149925262378E-009  0.761163311817011E-008  0.144827336829595E-008  0.739773984653712E-008  0.130736270396820E-008  0.115148361644231E-007  0.157640591573733E-007
  0.741914049487783E-008  0.883892612514967E-008  0.728756287687090E-008  0.481858918247625E-008  0.112348304388383E-007  0.101233203275326E-007  0.208343558836978E-007
  0.148301200487944E-007  0.105120049545214E-007  0.132165682427355E-007  0.767764648689071E-009  0.204948050540081E-007  0.642709769000394E-008  0.304768620179290E-007
  0.219793742429890E-007  0.121335749250951E-007  0.184690658467029E-007 -0.494933898057015E-008  0.272320657995701E-007 -0.359058475898202E-009  0.398141307608416E-007
  0.285053561104463E-007  0.135820653580330E-007  0.220379712464823E-007 -0.122194289555388E-007  0.296556497273811E-007 -0.100616379819287E-007  0.468634959649208E-007
  0.342422462393352E-007  0.148750078924766E-007  0.229683493534983E-007 -0.204453398787861E-007  0.264325808152898E-007 -0.215494099513421E-007  0.508714425158792E-007
  0.392781052812979E-007  0.161090115456426E-007  0.205687291429341E-007 -0.284286664943880E-007  0.170404590767705E-007 -0.327753032684009E-007  0.520842619892158E-007
  0.438429978872022E-007  0.171595684131988E-007  0.147673561383973E-007 -0.346059267327223E-007  0.215797880431817E-008 -0.413036333175909E-007  0.567411241479787E-007
  0.481219257454173E-007  0.177701451977834E-007  0.629112303654372E-008 -0.373624203472234E-007 -0.162382712061760E-007 -0.449522977716534E-007  0.680883692490352E-007
  0.520231691985011E-007  0.174254319886493E-007 -0.333637177361208E-008 -0.355275798131041E-007 -0.350910519575334E-007 -0.425223033090651E-007  0.787085418024290E-007
  0.551558126295000E-007  0.156161793060300E-007 -0.121763990735904E-007 -0.287580002301384E-007 -0.510523432264623E-007 -0.342866195330629E-007  0.864565619656780E-007
  0.567724435627489E-007  0.120573706017198E-007 -0.184072845912637E-007 -0.178237819460011E-007 -0.613248256472159E-007 -0.221049406714443E-007  0.900362570218392E-007
  0.561203920178518E-007  0.684189013220483E-008 -0.209898684027629E-007 -0.439678470666857E-008 -0.645868727389713E-007 -0.880007839135009E-008  0.888942454633843E-007
  0.526545962055946E-007  0.386157923055050E-009 -0.199773487323100E-007  0.948747820971959E-008 -0.611369830640918E-007  0.286896224317464E-008  0.832269334948323E-007
  0.463412572142510E-007 -0.667187805968987E-008 -0.163940954093586E-007  0.219441402364358E-007 -0.525542514478585E-007  0.109829377793527E-007  0.741505118426988E-007
  0.377400424070168E-007 -0.137567094609045E-007 -0.118331567196362E-007  0.316301456233430E-007 -0.410045470464533E-007  0.149505237733732E-007  0.639743465143897E-007
  0.229195859719641E-007 -0.188800748831503E-007  0.435470260571845E-008  0.390471450639611E-007 -0.350878758885137E-007  0.289093345057715E-007  0.600600060659252E-007
  0.121520920608307E-007 -0.237584881423613E-007  0.109349329755169E-007  0.433383388335628E-007 -0.210485370461578E-007  0.252644966000367E-007  0.559518106442776E-007
  0.152177888279990E-008 -0.280899023922406E-007  0.143790540032184E-007  0.443413286684370E-007 -0.918119647283585E-008  0.193003511473211E-007  0.564620027806687E-007
 -0.755181847595945E-008 -0.320119646262190E-007  0.147009749742981E-007  0.426030746584911E-007 -0.222817291376746E-009  0.130907118453030E-007  0.571105086198271E-007
 -0.139681911770779E-007 -0.355450650902407E-007  0.126856784942666E-007  0.387512025643261E-007  0.542772664873271E-008  0.787062066359965E-008  0.566042623850608E-007
 -0.170820728594478E-007 -0.384939673949501E-007  0.949279110503939E-008  0.335801902661985E-007  0.763374192844153E-008  0.375370198858792E-008  0.549150303564894E-007
 -0.166601818568218E-007 -0.404860199161776E-007  0.600666916347206E-008  0.279889605726427E-007  0.691989261981921E-008 -0.480866349437617E-010  0.521817896880806E-007
 -0.128576463598863E-007 -0.409482336110132E-007  0.268310876430634E-008  0.227251676581615E-007  0.472630526625267E-008 -0.455043428065303E-008  0.485975552976635E-007
 -0.617089679458495E-008 -0.392923134954067E-007 -0.401909297483365E-009  0.182655757007597E-007  0.321778803786557E-008 -0.101161739986378E-007  0.447311323865663E-007
  0.266465030819879E-008 -0.347343593966254E-007 -0.339922582997023E-008  0.146292491112247E-007  0.467164480611315E-008 -0.158159591832953E-007  0.412166673452361E-007
  0.123254322883960E-007 -0.267505754011924E-007 -0.626500638340266E-008  0.116739137049669E-007  0.103389503355348E-007 -0.194993340664865E-007  0.391015384508594E-007
  0.211420762892613E-007 -0.151774567228884E-007 -0.880126959470341E-008  0.929723879152567E-008  0.196696782751844E-007 -0.185875655406592E-007  0.395621874777261E-007
  0.271417050459178E-007 -0.779835067508439E-009 -0.107603597120708E-007  0.763244579429882E-008  0.301291336169404E-007 -0.113451006414577E-007  0.433297053827263E-007
  0.287007275082741E-007  0.146104968417426E-007 -0.121679850274400E-007  0.701023068359384E-008  0.380925405470761E-007  0.189006314853631E-008  0.499674161087371E-007
  0.252986017544277E-007  0.283918923346987E-007 -0.133172406198388E-007  0.765815684018857E-008  0.402778004596503E-007  0.184054960320189E-007  0.575611584887016E-007
  0.177491700867248E-007  0.379961422880987E-007 -0.146925023184493E-007  0.946184045185603E-008  0.352464978686534E-007  0.339290334244137E-007  0.633957469968610E-007
  0.811674369033448E-008  0.417643170466533E-007 -0.165722500317033E-007  0.118731700490762E-007  0.240561799933654E-007  0.443172315853568E-007  0.654466637674865E-007
 -0.119100207939549E-008  0.396415399281954E-007 -0.188648370186425E-007  0.141702493007099E-007  0.963923528510163E-008  0.473204884052170E-007  0.633805778288061E-007
 -0.821385969352742E-008  0.330484764354355E-007 -0.210740816883857E-007  0.157552392111465E-007 -0.448949166630288E-008  0.433444268134108E-007  0.586370432959492E-007
 -0.119569214507344E-007  0.242187059987943E-007 -0.225553514795859E-007  0.163716268541379E-007 -0.154662166718918E-007  0.349333454461188E-007  0.531057619960909E-007
 -0.123943987537835E-007  0.154602994651018E-007 -0.227847481757380E-007  0.161398455829036E-007 -0.217175661999174E-007  0.255746984902854E-007  0.475793302647905E-007
 -0.100243011266607E-007  0.842040429476836E-008 -0.214857665325471E-007  0.153217593557861E-007 -0.227686725604989E-007  0.181255884129268E-007  0.413917583815943E-007
 -0.545843423949435E-008  0.388244171446121E-008 -0.185950164152048E-007  0.142347243734942E-007 -0.188418819860113E-007  0.140061185638887E-007  0.338285243927728E-007
  0.743391259908247E-009  0.163452901881852E-008 -0.142328743222456E-007  0.129844261358452E-007 -0.106795381381784E-007  0.127352726332793E-007  0.253972053336923E-007
  0.798778626183824E-008  0.952913431830192E-009 -0.854256392800744E-008  0.113548875095471E-007  0.484900851053295E-009  0.126150095625889E-007  0.180478459356206E-007
  0.155775316122004E-007  0.807184443280333E-009 -0.188027880730904E-008  0.889266479131198E-008  0.128560105130652E-007  0.113221348940060E-007  0.219982771124099E-007
  0.226811822717160E-007  0.486723807782165E-009  0.516033718594068E-008  0.503160416452523E-008  0.242054817156919E-007  0.703829834309997E-008  0.341522410529837E-007
  0.285285278190802E-007 -0.188947936902028E-009  0.116344935481319E-007 -0.716836817268650E-009  0.321426318123453E-007 -0.113399068052898E-008  0.445382720575425E-007
  0.327477550480433E-007 -0.962349997753481E-009  0.162731152753593E-007 -0.832655922262948E-008  0.344378832745508E-007 -0.127892916389102E-007  0.517145057918880E-007
  0.353488575429900E-007 -0.133197569770437E-008  0.178732326543414E-007 -0.170976883540576E-007  0.295191526100279E-007 -0.262401454460481E-007  0.552619491192243E-007
  0.368416205293870E-007 -0.925377309053261E-009  0.155764702436375E-007 -0.256283809361777E-007  0.168736692828295E-007 -0.387810708594105E-007  0.558533787076103E-007
  0.379600362973781E-007  0.335135443495818E-009  0.940370754154295E-008 -0.319534449800502E-007 -0.234038381681352E-008 -0.471311262182319E-007  0.571027500656410E-007
  0.393279469339979E-007  0.200479247091912E-008  0.439644165358395E-009 -0.341431682807953E-007 -0.252020745600531E-007 -0.485398690453230E-007  0.656195972958121E-007
  0.411557683012447E-007  0.321718980838681E-008 -0.919667562676356E-008 -0.308685022577487E-007 -0.473774901839127E-007 -0.416891169732517E-007  0.764405908290155E-007
  0.430566471901093E-007  0.313462117512158E-008 -0.168870356710956E-007 -0.220598275544509E-007 -0.643051750971535E-007 -0.276790987120483E-007  0.846240066131662E-007
  0.441015620631937E-007  0.117933380849919E-008 -0.204101014650723E-007 -0.911812448322960E-008 -0.727442809484909E-007 -0.982694005164243E-008  0.881638961238220E-007
  0.431299179852570E-007 -0.266466190348892E-008 -0.188147471893418E-007  0.563155662684055E-008 -0.718495277194211E-007  0.762172888229112E-008  0.863526729717239E-007
  0.392842137612336E-007 -0.781562638350770E-008 -0.127774749034338E-007  0.196700974922286E-007 -0.632391993312135E-007  0.208891061287304E-007  0.796977554461054E-007
  0.323567395064959E-007 -0.134543100116546E-007 -0.423998023687971E-008  0.311209018638887E-007 -0.499347015420491E-007  0.279779956058756E-007  0.697949245034486E-007
  0.229195859719641E-007 -0.188800748831503E-007  0.435470260571845E-008  0.390471450639611E-007 -0.350878758885137E-007  0.289093345057715E-007  0.600600060659252E-007
  0.995625338814698E-008 -0.171496374933370E-007  0.175129069038679E-007  0.383304475195197E-007 -0.227026068291300E-007  0.391139113288015E-007  0.579216427420908E-007
  0.188769792403804E-009 -0.202921658326345E-007  0.251168095941666E-007  0.397326483048547E-007 -0.961151430859325E-008  0.311472821290982E-007  0.562031432566813E-007
 -0.950486360454385E-008 -0.229059958816905E-007  0.284296320585548E-007  0.389097077781614E-007  0.304599511459414E-010  0.214556901016272E-007  0.569763312379120E-007
 -0.177707175735579E-007 -0.252908821878243E-007  0.277683534908441E-007  0.363990793416009E-007  0.645575865509567E-008  0.125000649715411E-007  0.569511881717086E-007
 -0.236132028588472E-007 -0.276158488578510E-007  0.243425981308267E-007  0.326085487771359E-007  0.970135340489777E-008  0.568037161311815E-008  0.555274078152032E-007
 -0.265668103818842E-007 -0.297819506070331E-007  0.196619549831563E-007  0.279949691396279E-007  0.963209044429022E-008  0.101154297316348E-008  0.529296486235414E-007
 -0.265548346329655E-007 -0.315601781982727E-007  0.148943335669962E-007  0.232606619559908E-007  0.644888037509137E-008 -0.276367915760186E-008  0.495823407939215E-007
 -0.238283818575186E-007 -0.326509858460925E-007  0.106181506127770E-007  0.190986403160871E-007  0.142113931125280E-008 -0.742080662334408E-008  0.461991328276514E-007
 -0.184554062922536E-007 -0.326696649088658E-007  0.666022798508939E-008  0.158845373521250E-007 -0.287682733528843E-008 -0.140571703078670E-007  0.434944171614797E-007
 -0.107487193981720E-007 -0.310023403580766E-007  0.279828532429006E-008  0.135474467773271E-007 -0.337870737459824E-008 -0.221367507580249E-007  0.419199124037901E-007
 -0.130577308934701E-008 -0.266865367008796E-007 -0.995902137923124E-009  0.117257708180752E-007  0.214838947162596E-008 -0.291574094060812E-007  0.412400235900811E-007
  0.858550380453983E-008 -0.189344576294801E-007 -0.442399830626528E-008  0.101899971831703E-007  0.137963753189606E-007 -0.313940458194482E-007  0.416114039695181E-007
  0.169521992016850E-007 -0.767165529710460E-008 -0.708648226489097E-008  0.915538165772226E-008  0.288098735619021E-007 -0.257167029241385E-007  0.440355920244723E-007
  0.216585071842805E-007  0.590004707085873E-008 -0.892860440711633E-008  0.918949209102385E-008  0.423166135453384E-007 -0.114167935079122E-007  0.492681587103206E-007
  0.213837667193821E-007  0.193318997157355E-007 -0.104591721188445E-007  0.107609027474003E-007  0.493025637511391E-007  0.887208648132256E-008  0.566053728934333E-007
  0.164120881297452E-007  0.296387333515751E-007 -0.124463605923020E-007  0.137440349406926E-007  0.468226527817227E-007  0.298014773784670E-007  0.634701183711182E-007
  0.855214439942061E-008  0.345945984999068E-007 -0.154740354917986E-007  0.173665901260787E-007  0.353326436673983E-007  0.455015094478785E-007  0.669576022821098E-007
  0.458516609403975E-009  0.336260781402939E-007 -0.194176296076342E-007  0.204992543603162E-007  0.183111451172526E-007  0.522116161585032E-007  0.660830048838083E-007
 -0.561309519388003E-008  0.279233633755728E-007 -0.235703110185926E-007  0.222375440731658E-007  0.431231242930033E-009  0.496806173568785E-007  0.622468797987059E-007
 -0.840573774646090E-008  0.197810075425950E-007 -0.269471992415470E-007  0.222799113846328E-007 -0.141625387549374E-007  0.408660860860794E-007  0.577304871822466E-007
 -0.782277213073720E-008  0.115391093653015E-007 -0.287884637702399E-007  0.208964208797689E-007 -0.230626382791983E-007  0.300569739069619E-007  0.532242417225470E-007
 -0.437515672737797E-008  0.492551488482100E-008 -0.287574216764279E-007  0.187982881261658E-007 -0.253786846082232E-007  0.211604826454787E-007  0.480222173956890E-007
  0.122274614046293E-008  0.512033864022337E-009 -0.268329174340333E-007  0.166258971037808E-007 -0.214160595218045E-007  0.159319280552063E-007  0.413091152808505E-007
  0.830748335830516E-008 -0.211772181936645E-008 -0.231102634418485E-007  0.147513368078917E-007 -0.121520280697331E-007  0.138942777286133E-007  0.337098812233747E-007
  0.160508384368213E-007 -0.399607247632019E-008 -0.177308822674804E-007  0.130870773879250E-007  0.587402465453012E-009  0.129659329906169E-007  0.277876003183932E-007
  0.234604693194823E-007 -0.612947293377850E-008 -0.110072062510480E-007  0.110328024781294E-007  0.143937916549903E-007  0.106446677428587E-007  0.299795710043973E-007
  0.293490733145150E-007 -0.906380216756540E-008 -0.353354795522153E-008  0.776002594297925E-008  0.264861231286459E-007  0.498668175695883E-008  0.399201944957789E-007
  0.328045552123459E-007 -0.125202664923591E-007  0.355155277566708E-008  0.256109248480050E-008  0.340995238998955E-007 -0.466737002073811E-008  0.489275336982068E-007
  0.334532700792556E-007 -0.156603367374632E-007  0.880563236236430E-008 -0.466852573616545E-008  0.349330855541687E-007 -0.175773135079188E-007  0.547018179491276E-007
  0.317235126861594E-007 -0.174792542152869E-007  0.108123012759959E-007 -0.131935197013401E-007  0.275485206128374E-007 -0.316690142940862E-007  0.571368992964107E-007
  0.286392009971193E-007 -0.171739242258354E-007  0.861686359089118E-008 -0.213863566400705E-007  0.116344244779573E-007 -0.436937547685310E-007  0.573052460448819E-007
  0.255339515342233E-007 -0.147768877513212E-007  0.236892654595988E-008 -0.270863472335280E-007 -0.110099118199420E-007 -0.499530095260502E-007  0.587514601415942E-007
  0.236587201866764E-007 -0.108820142762094E-007 -0.648369936338050E-008 -0.281424199527108E-007 -0.364836214870488E-007 -0.473398165562137E-007  0.655977953420250E-007
  0.235708312433317E-007 -0.682429168249108E-008 -0.152966343270607E-007 -0.234048228420628E-007 -0.592374450158759E-007 -0.350819043354820E-007  0.751771403235643E-007
  0.249224210002263E-007 -0.407242555520954E-008 -0.209986910730621E-007 -0.132871423778880E-007 -0.738996823678450E-007 -0.154166376417474E-007  0.824358154412654E-007
  0.264820992906083E-007 -0.360573590507216E-008 -0.213056831429127E-007  0.184990334947655E-009 -0.774604546248213E-007  0.682970480263442E-008  0.849151830871091E-007
  0.266129400893378E-007 -0.555388420147877E-008 -0.156692431850854E-007  0.140626745087441E-007 -0.703378437653368E-007  0.261206551576293E-007  0.820740789471622E-007
  0.240381549072813E-007 -0.915864014330812E-008 -0.547044212864908E-008  0.257940542743056E-007 -0.559425348339787E-007  0.384412383215304E-007  0.748663417752098E-007
  0.183102352772100E-007 -0.133293527340007E-007  0.657311993956006E-008  0.339104971724403E-007 -0.388070989218090E-007  0.424121446048434E-007  0.654551443959598E-007
  0.995625338814698E-008 -0.171496374933370E-007  0.175129069038679E-007  0.383304475195197E-007 -0.227026068291300E-007  0.391139113288015E-007  0.579216427420908E-007
  0.185474523178522E-008 -0.110198416350898E-007  0.239706688338492E-007  0.322299751564525E-007 -0.732517757031466E-008  0.435422789392629E-007  0.559572221149976E-007
 -0.570037775011747E-008 -0.133057803164199E-007  0.310138724800787E-007  0.309060146943081E-007  0.257605890055250E-008  0.323073065864615E-007  0.533955916048682E-007
 -0.133655088691624E-007 -0.149924640565339E-007  0.334701506965111E-007  0.287106038127533E-007  0.821442477549853E-008  0.202713750964767E-007  0.523627343876185E-007
 -0.198679079030592E-007 -0.164611071676882E-007  0.318848288312580E-007  0.260588050969248E-007  0.109637776693878E-007  0.974772240942245E-008  0.507572274776236E-007
 -0.243850566632497E-007 -0.178987137314578E-007  0.276250258453002E-007  0.229632779227679E-007  0.114560971941721E-007  0.203761449520295E-008  0.480627371383085E-007
 -0.267132212264668E-007 -0.191985575566294E-007  0.223162777416527E-007  0.194249070749367E-007  0.952719201248550E-008 -0.279834193682964E-008  0.445846071701216E-007
 -0.270445570893158E-007 -0.202743317964222E-007  0.171746323950292E-007  0.158687173468976E-007  0.486039743058652E-008 -0.608753155009143E-008  0.410530424210417E-007
 -0.257160807386778E-007 -0.211669956614644E-007  0.127230941865117E-007  0.128661736626042E-007 -0.184987253794752E-008 -0.100656999866263E-007  0.387240363250844E-007
 -0.227134721197568E-007 -0.219024661570136E-007  0.876079665249342E-008  0.107184100655811E-007 -0.826942466071306E-008 -0.165888197095288E-007  0.387481055612169E-007
 -0.177584206061992E-007 -0.222634868610208E-007  0.493030833384775E-008  0.926362287762973E-008 -0.108704414940195E-007 -0.257152263943983E-007  0.408755422135521E-007
 -0.106784456438348E-007 -0.213701281589268E-007  0.123209759419122E-008  0.805818779088485E-008 -0.655670856149296E-008 -0.351922836916130E-007  0.434428650186436E-007
 -0.196337859770691E-008 -0.180049895026366E-007 -0.188984413643540E-008  0.685483614347848E-008  0.576342997605778E-008 -0.407442089868954E-007  0.453175047907141E-007
  0.683453981469415E-008 -0.111748081184008E-007 -0.385118432591265E-008  0.604626111797485E-008  0.237930099775974E-007 -0.379736860107904E-007  0.472341230745405E-007
  0.134357086286915E-007 -0.121868327977121E-008 -0.458334757275185E-008  0.654599052427928E-008  0.422067113771435E-007 -0.247930753952572E-007  0.509768665814733E-007
  0.159306288663867E-007  0.100093872783988E-007 -0.484850545075947E-008  0.915042483113427E-008  0.546221463436665E-007 -0.299010989224671E-008  0.571106821087087E-007
  0.138187065506950E-007  0.196297386879046E-007 -0.593158965668849E-008  0.138248831595676E-007  0.563825521346426E-007  0.218241192429297E-007  0.638170240812641E-007
  0.841390517365371E-008  0.250693543945086E-007 -0.884093709741984E-008  0.194607592106807E-007  0.467438188325889E-007  0.426055325924356E-007  0.679944503807719E-007
  0.216911232745733E-008  0.252524533476840E-007 -0.136382077102273E-007  0.243779711427124E-007  0.289886226090601E-007  0.540166023959172E-007  0.679192468669754E-007
 -0.254496839339398E-008  0.209479626411915E-007 -0.194377788773525E-007  0.271612284466706E-007  0.860584479215971E-008  0.546599987581039E-007  0.645567882473180E-007
 -0.432467768031410E-008  0.141833481651715E-007 -0.249223195773874E-007  0.272881482308056E-007 -0.911267201898417E-008  0.471660346776393E-007  0.603373731080456E-007
 -0.289573635614119E-008  0.718212419067288E-008 -0.289446970123518E-007  0.251885214699984E-007 -0.206068367209879E-007  0.362819781330934E-007  0.563753755311420E-007
  0.126450376041328E-008  0.146327521758514E-008 -0.309928686161879E-007  0.219511552807459E-007 -0.244525680801241E-007  0.263625006503575E-007  0.520220301679412E-007
  0.745745014314213E-008 -0.258730892228137E-008 -0.309345042405547E-007  0.187351809652829E-007 -0.207985783482651E-007  0.196062486022821E-007  0.464744196903285E-007
  0.148702158645717E-007 -0.561500656721137E-008 -0.287927088570993E-007  0.163095689659313E-007 -0.111431791082511E-007  0.156877937263878E-007  0.406478738769776E-007
  0.224743639930380E-007 -0.874985802938935E-008 -0.245693934963230E-007  0.146601219671974E-007  0.209219988226787E-008  0.125313772553367E-007  0.375087912590763E-007
  0.289576505113109E-007 -0.129694193844804E-007 -0.184823381951724E-007  0.131625560251848E-007  0.157916106835216E-007  0.787463943764588E-008  0.403612513036885E-007
  0.328301477059995E-007 -0.184503944704734E-007 -0.111253460331855E-007  0.107129230192774E-007  0.267841799515580E-007  0.207218659546561E-009  0.470460114273438E-007
