  0.889863216994323E-008  0.900519323337190E-009 -0.835445478913885E-008  0.102769664609424E-008 -0.171329032681389E-007  0.427626453934175E-008  0.213320179216356E-007
  0.920766182257127E-008  0.734372833175711E-009 -0.893661596307210E-008  0.133710097595020E-008 -0.169059185666360E-007  0.415069762969349E-008  0.215233201342844E-007
  0.963893681822428E-008  0.504024551393484E-009 -0.946477069831985E-008  0.161545891919692E-008 -0.166363366101885E-007  0.400193979032772E-008  0.217333139197937E-007
  0.101825055294406E-007  0.215193789913033E-009 -0.991758611873322E-008  0.185148392131958E-008 -0.163257285066145E-007  0.383101823929066E-008  0.219529336996311E-007
  0.108249592106213E-007 -0.124563546903828E-009 -0.102755385316353E-007  0.203497780317647E-008 -0.159759172711417E-007  0.363910840837930E-008  0.221726475071957E-007
  0.115497531123944E-007 -0.506058509068485E-009 -0.105214548172363E-007  0.215711766900704E-008 -0.155889705848027E-007  0.342752258363898E-008  0.223827513592630E-007
  0.123376100542832E-007 -0.918719139997708E-009 -0.106409956867051E-007  0.221071113824849E-008 -0.151671905977133E-007  0.319769974290512E-008  0.225736220651581E-007
  0.131669990850597E-007 -0.135086791811475E-008 -0.106230748537234E-007  0.219039557510684E-008 -0.147131035780944E-007  0.295119357086272E-008  0.227359279922349E-007
  0.140146740605752E-007 -0.179004178129145E-008 -0.104601955311322E-007  0.209280336264561E-008 -0.142294473708264E-007  0.268966056958896E-008  0.228607961754074E-007
  0.148562654628529E-007 -0.222332206385915E-008 -0.101487021408073E-007  0.191665877675982E-008 -0.137191572807991E-007  0.241484613312873E-008  0.229399423152432E-007
  0.156669034459992E-007 -0.263768175386185E-008 -0.968893288242158E-008  0.166282829575475E-008 -0.131853508198745E-007  0.212857129395933E-008  0.229657654480375E-007
  0.164218638357936E-007 -0.302033180992122E-008 -0.908527410381010E-008  0.133431066229235E-008 -0.126313106578941E-007  0.183271902899767E-008  0.229314175228878E-007
  0.170972173779470E-007 -0.335906356796385E-008 -0.834611126160064E-008  0.936171619661869E-009 -0.120604662544361E-007  0.152921999255661E-008  0.228308513179093E-007
  0.176704660850956E-007 -0.364257152541666E-008 -0.748367552203152E-008  0.475423961330655E-009 -0.114763740532784E-007  0.122003840302064E-008  0.226588502272143E-007
  0.181211508358907E-007 -0.386075450327502E-008 -0.651379069384445E-008 -0.391412209040749E-010 -0.108826963360809E-007  0.907158421127934E-009  0.224110459095862E-007
  0.184314149497477E-007 -0.400498307199765E-008 -0.545552450586474E-008 -0.597169824276818E-009 -0.102831789014069E-007  0.592570094470418E-009  0.220839261403535E-007
  0.185865071829669E-007 -0.406832957773733E-008 -0.433075216087860E-008 -0.118699764102610E-008 -0.968162751423232E-008  0.278257047546424E-009  0.216748347113867E-007
  0.185752117467405E-007 -0.404575333358893E-008 -0.316364215111884E-008 -0.179593730522357E-008 -0.908188352281714E-008 -0.338168115329028E-010  0.211819656685632E-007
  0.183901928498762E-007 -0.393423938803276E-008 -0.198007709281841E-008 -0.241058812639028E-008 -0.848779858464734E-008 -0.341719166546004E-009  0.206043536424085E-007
  0.180282441990478E-007 -0.373288235003840E-008 -0.807023658417973E-009 -0.301716334149755E-008 -0.790320881526498E-008 -0.643559694810093E-009  0.199418608367097E-007
  0.174904345310305E-007 -0.344292411694206E-008  0.328133668898088E-009 -0.360182595617421E-008 -0.733190851835265E-008 -0.937501820901711E-009  0.191951619316996E-007
  0.167821463691024E-007 -0.306773223113548E-008  0.139827643618747E-008 -0.415102251198430E-008 -0.677762365689310E-008 -0.122177077572259E-008  0.183657287896502E-007
  0.159130040707055E-007 -0.261273254360780E-008  0.237723687956595E-008 -0.465181337602349E-008 -0.624398558827170E-008 -0.149466520672456E-008  0.174558165362892E-007
  0.148966925798076E-007 -0.208528818763397E-008  0.324046655567060E-008 -0.509217929439505E-008 -0.573450439876394E-008 -0.175456173709522E-008  0.164684533239626E-007
  0.137506700847147E-007 -0.149453473623059E-008  0.396566882649712E-008 -0.546131368846917E-008 -0.525254404530444E-008 -0.199992505531293E-008  0.154074388422216E-007
  0.124957824262947E-007 -0.851174639612718E-009  0.453338092680326E-008 -0.574987916191881E-008 -0.480129653437946E-008 -0.222931347117191E-008  0.142773602789836E-007
  0.111557853798289E-007 -0.167234227530684E-009  0.492748883490055E-008 -0.595023193424093E-008 -0.438375889957741E-008 -0.244138595222275E-008  0.130836387613404E-007
  0.975679148863368E-008  0.544208531946744E-009  0.513565978474085E-008 -0.605660214017945E-008 -0.400270999566962E-008 -0.263490542425548E-008  0.118326387724134E-007
  0.832665091369263E-008  0.126932502283823E-008  0.514968214150723E-008 -0.606524082699103E-008 -0.366068976167276E-008 -0.280874629103985E-008  0.105319002659421E-007
  0.689428427792920E-008  0.199384403821627E-008  0.496570287985494E-008 -0.597450428421118E-008 -0.335997952204377E-008 -0.296189757198618E-008  0.919064834375487E-008
  0.548898398020751E-008  0.270337999147035E-008  0.458435516400877E-008 -0.578490346791158E-008 -0.310258491174319E-008 -0.309346561280063E-008  0.782126255692436E-008
  0.413970316223541E-008  0.338375854587377E-008  0.401077248267586E-008 -0.549909905767723E-008 -0.289022060498963E-008 -0.320268088614163E-008  0.721706759127640E-008
  0.287435138434068E-008  0.402133696484801E-008  0.325448750293251E-008 -0.512184495077776E-008 -0.272429643039508E-008 -0.328889800442987E-008  0.733215528458506E-008
  0.171911088374899E-008  0.460331687826145E-008  0.232922192361092E-008 -0.465988999837848E-008 -0.260590781955689E-008 -0.335160057899670E-008  0.741495053207981E-008
  0.697800378050802E-009  0.511803354893605E-008  0.125256527743352E-008 -0.412182833575981E-008 -0.253582722190206E-008 -0.339040306188260E-008  0.746443474996358E-008
 -0.168707335313188E-009  0.555522492644312E-008  0.455597449475712E-010 -0.351791185791183E-008 -0.251449866239080E-008 -0.340505515305945E-008  0.748023937262298E-008
 -0.862989863848628E-009  0.590626285972730E-008 -0.126780589285448E-008 -0.285982014453913E-008 -0.254203480627424E-008 -0.339543894341843E-008  0.746225598098020E-008
 -0.137149401200975E-008  0.616435592457714E-008 -0.266117443417359E-008 -0.216040099720382E-008 -0.261821734964116E-008 -0.336157684455696E-008  0.741062052019906E-008
 -0.168485678923172E-008  0.632470318183614E-008 -0.410645806125534E-008 -0.143338146645227E-008 -0.274249856313449E-008 -0.330362677531187E-008  0.732573644414425E-008
 -0.179811747393630E-008  0.638460936980826E-008 -0.557451929368607E-008 -0.693057996303512E-009 -0.291400767671124E-008 -0.322188705715123E-008  0.720878532455946E-008
 -0.171082189249947E-008  0.634354617369728E-008 -0.703587438508588E-008  0.460299863154967E-010 -0.313155727584767E-008 -0.311679520954871E-008  0.789925821122325E-008
 -0.142700960197656E-008  0.620316663505754E-008 -0.846140372115833E-008  0.769431019110652E-009 -0.339365456926281E-008 -0.298892734990092E-008  0.926649871431050E-008
 -0.955089823862576E-009  0.596727060081412E-008 -0.982304966632349E-008  0.146310928426904E-008 -0.369851313371338E-008 -0.283899602016352E-008  0.106046235519732E-007
 -0.317245757412736E-009  0.563497822913410E-008 -0.982183021568634E-008  0.146551004266709E-008 -0.226621301567620E-008 -0.356983328226155E-008  0.101424472329182E-007
  0.270125658588490E-009  0.533902280254515E-008 -0.110474353727388E-007  0.209151209144972E-008 -0.263930471116142E-008 -0.338510231955620E-008  0.114435763954694E-007
  0.100747219836082E-008  0.496611235506991E-008 -0.121694376283297E-007  0.266738910648177E-008 -0.305389538147022E-008 -0.317862022603051E-008  0.126917187726551E-007
  0.187694240959081E-008  0.452487845758388E-008 -0.131682998033887E-007  0.318305636535821E-008 -0.350721524272607E-008 -0.295158936223836E-008  0.138815623065986E-007
  0.285805706216007E-008  0.402533931698852E-008 -0.140275407000602E-007  0.362986308362504E-008 -0.399625260739144E-008 -0.270534739117719E-008  0.150083047469467E-007
  0.392822924116888E-008  0.347865674046363E-008 -0.147340927918960E-007  0.400079062662649E-008 -0.451777542772270E-008 -0.244135973737370E-008  0.160676799588348E-007
  0.506333177370796E-008  0.289687150747013E-008 -0.152785686851427E-007  0.429060521676771E-008 -0.506835597452596E-008 -0.216121103540858E-008  0.170559883935720E-007
  0.623829701506935E-008  0.229261673399922E-008 -0.156554353468324E-007  0.449597340170805E-008 -0.564439539361414E-008 -0.186659911679928E-008  0.179701307020648E-007
  0.742773309354221E-008  0.167881311641095E-008 -0.158630892240518E-007  0.461552964174989E-008 -0.624214973345519E-008 -0.155932460177737E-008  0.188076387099566E-007
  0.860654125450881E-008  0.106836018686508E-008 -0.159038342038970E-007  0.464989480048305E-008 -0.685775587135344E-008 -0.124128158542144E-008  0.195667047829147E-007
  0.975051888482437E-008  0.473825046036302E-009 -0.157837624154222E-007  0.460164609378684E-008 -0.748725828322056E-008 -0.914445906517798E-009  0.202462085242709E-007
  0.108369315299020E-007 -0.928596079796471E-010 -0.155125418422319E-007  0.447523840007895E-008 -0.812663547336196E-008 -0.580863637573005E-009  0.208457389833816E-007
  0.118450426246039E-007 -0.620682180885369E-009 -0.151031187868522E-007  0.427687872023560E-008 -0.877182653062929E-008 -0.242638099878308E-009  0.213656148677420E-007
  0.127565856015462E-007 -0.109981489787604E-008 -0.145713420021904E-007  0.401435614049065E-008 -0.941875722962254E-008  0.980831511289306E-010  0.218068995060118E-007
  0.135561691768275E-007 -0.152184785721519E-008 -0.139355204250646E-007  0.369683127662943E-008 -0.100633655675115E-007  0.439122608472114E-009  0.221714124473720E-007
  0.142316046215773E-007 -0.187998513156948E-008 -0.132159240658690E-007  0.333459197573393E-008 -0.107016268530780E-007  0.778287438916662E-009  0.224617343727744E-007
  0.147741505534749E-007 -0.216920133408000E-008 -0.124342444702677E-007  0.293877992548447E-008 -0.113295778296455E-007  0.111338403842283E-008  0.226812083070215E-007
  0.151786673477420E-007 -0.238634929750354E-008 -0.116130258428581E-007  0.252109481145952E-008 -0.119433399064427E-007  0.144223278228860E-008  0.228339318755872E-007
  0.154436799597550E-007 -0.253022334878088E-008 -0.107750821998891E-007  0.209348509648481E-008 -0.125391411965150E-007  0.176268498206787E-008  0.229247416757870E-007
  0.155713491898448E-007 -0.260156685015797E-008 -0.994291537272772E-008  0.166783456681530E-008 -0.131133381053381E-007  0.207263502286395E-008  0.229591872068564E-007
  0.155673515754630E-007 -0.260303242451002E-008 -0.913814855066008E-008  0.125564621433272E-008 -0.136624347062116E-007  0.237003866644808E-008  0.229434913529806E-007
  0.154406730278548E-007 -0.253909109703806E-008 -0.838098734263442E-008  0.867742477837063E-009 -0.141831017413724E-007  0.265292640816878E-008  0.228844948104403E-007
  0.152033219513462E-007 -0.241589241119571E-008 -0.768972305146319E-008  0.513982781117837E-009 -0.146721942492687E-007  0.291941656403662E-008  0.227895810193212E-007
  0.148699705757158E-007 -0.224108031098905E-008 -0.708029075035086E-008  0.203000576421053E-009 -0.151267674102744E-007  0.316773270100179E-008  0.226665788222895E-007
  0.144575308011137E-007 -0.202357165921355E-008 -0.656588782065107E-008 -0.580128495854315E-010 -0.155440917058796E-007  0.339621252295016E-008  0.225236363779054E-007
  0.139846800630354E-007 -0.177329864740480E-008 -0.615666802416009E-008 -0.263499771899077E-009 -0.159216666078903E-007  0.360332412612855E-008  0.223690679898875E-007
  0.134713452462064E-007 -0.150092590500142E-008 -0.585951311600956E-008 -0.409672711592766E-009 -0.162572325340193E-007  0.378767659786417E-008  0.222111684972672E-007
  0.129381595119217E-007 -0.121754591602960E-008 -0.567788887072067E-008 -0.494607921831948E-009 -0.165487825122923E-007  0.394802817325193E-008  0.220579986467262E-007
  0.124059052131583E-007 -0.934367849293475E-009 -0.561178919635096E-008 -0.518286462290767E-009 -0.167945713854463E-007  0.408330071860505E-008  0.219171468651638E-007
  0.118949559530333E-007 -0.662398520473924E-009 -0.565776758769278E-008 -0.482583245273280E-009 -0.169931247197824E-007  0.419258293640962E-008  0.217954741620237E-007
  0.114247316445720E-007 -0.412134080559186E-009 -0.580905582658095E-008 -0.391203873439294E-009 -0.171432462726673E-007  0.427514101514478E-008  0.216988588956591E-007
  0.110131797730487E-007 -0.193261084951079E-009 -0.605576670909221E-008 -0.249574024365070E-009 -0.172440236503180E-007  0.433042373474363E-008  0.216319559826263E-007
  0.106762955141138E-007 -0.143865443210404E-010 -0.638517524034958E-008 -0.646756067643026E-010 -0.172948332414130E-007  0.435806578264747E-008  0.215979929120456E-007
  0.104276919562102E-007  0.117209822951236E-009 -0.678207171986006E-008  0.155151550731884E-009 -0.172953441007261E-007  0.435789107422279E-008  0.215986197009356E-007
  0.102782314970913E-007  0.195777981615732E-009 -0.722917830028247E-008  0.400454439571648E-009 -0.172455200351826E-007  0.432991485182609E-008  0.216338298441849E-007
  0.102357265036667E-007  0.217264578879852E-009 -0.770761784342728E-008  0.660936485002821E-009 -0.171456206090078E-007  0.427434370088356E-008  0.217019585357993E-007
  0.103047187950829E-007  0.179430805027037E-009 -0.819742628163380E-008  0.925749122737755E-009 -0.169962008779095E-007  0.419157157568226E-008  0.217997606555091E-007
  0.104863398507455E-007  0.819177517959015E-010 -0.867809207910937E-008  0.118380653141153E-008 -0.167981099650578E-007  0.408218010248849E-008  0.219225589732607E-007
  0.107782600291910E-007 -0.737378394229155E-010 -0.912911412765252E-008  0.142409764452376E-008 -0.165524881065470E-007  0.394692921879566E-008  0.220644475786477E-007
  0.111747246974578E-007 -0.284140437431196E-009 -0.953056064507101E-008  0.163600444006442E-008 -0.162607618630536E-007  0.378675594288912E-008  0.222185318748343E-007
  0.116666796704913E-007 -0.544124184523171E-009 -0.986361810012611E-008  0.180960199458546E-008 -0.159246386289673E-007  0.360276198022106E-008  0.223771850624509E-007
  0.122419815925988E-007 -0.846888487624055E-009 -0.101111151067984E-007  0.193594536154893E-008 -0.155460992539425E-007  0.339620829650002E-008  0.225323041582702E-007
  0.128856889726725E-007 -0.118418361909934E-008 -0.102580075700291E-007  0.200732798219817E-008 -0.151273891837794E-007  0.316850213193535E-008  0.226755499859054E-007
  0.135804302746487E-007 -0.154652803673531E-008 -0.102918150579402E-007  0.201750553104748E-008 -0.146710076525694E-007  0.292118755195218E-008  0.227985644360120E-007
  0.143068346786046E-007 -0.192346605065271E-008 -0.102029938336264E-007  0.196188012711878E-008 -0.141796960882321E-007  0.265593155422182E-008  0.228931565206167E-007
  0.150440223634455E-007 -0.230384895596387E-008 -0.998523992068884E-008  0.183764107823629E-008 -0.136564241502269E-007  0.237451088629339E-008  0.229514598773673E-007
  0.157701365801499E-007 -0.267613327969316E-008 -0.963571022167976E-008  0.164385742695878E-008 -0.131043744901105E-007  0.207879925043240E-008  0.229660584247429E-007
  0.164629087846583E-007 -0.302869278413600E-008 -0.915515869776684E-008  0.138151943213067E-008 -0.125269257980253E-007  0.177075183684358E-008  0.229300867190097E-007
  0.171002406916074E-007 -0.335012996259183E-008 -0.854798083992672E-008  0.105352910436935E-008 -0.119276343334661E-007  0.145239075848655E-008  0.228373060048725E-007
  0.176607897799506E-007 -0.362958271448458E-008 -0.782216493381035E-008  0.664642231038941E-009 -0.113102137872138E-007  0.112579025969441E-008  0.226821608899462E-007
  0.181245424392671E-007 -0.385701551119413E-008 -0.698915003030573E-008  0.221358881837942E-009 -0.106785137353804E-007  0.793061475987818E-009  0.224598187596364E-007
  0.184733612268494E-007 -0.402348923256153E-008 -0.606359375224025E-008 -0.268228984524996E-009 -0.100364967204668E-007  0.456337788432501E-009  0.221661966762640E-007
  0.186914905940619E-007 -0.412140240622399E-008 -0.506305327264130E-008 -0.794630962646866E-009 -0.938821396713691E-008  0.117760514090082E-009  0.217979764664658E-007
  0.187660090133915E-007 -0.414469798750248E-008 -0.400758870802773E-008 -0.134718800767620E-008 -0.873777999840131E-008 -0.220535681965145E-009  0.213526118321791E-007
  0.186872133430885E-007 -0.408902983528344E-008 -0.291929524198748E-008 -0.191433042061012E-008 -0.808934623948528E-008 -0.556435916811930E-009  0.208283267770335E-007
  0.184489266941100E-007 -0.395188667017299E-008 -0.182177829481664E-008 -0.248385787364711E-008 -0.744707375415462E-008 -0.887857749137285E-009  0.202241091180624E-007
  0.180487194765110E-007 -0.373267000173445E-008 -0.739582187942725E-009 -0.304323666949033E-008 -0.681510546709961E-008 -0.121276436718319E-008  0.195396980726312E-007
  0.174880374248678E-007 -0.343272441681984E-008  0.302412279250706E-009 -0.357990073874592E-008 -0.619753776959264E-008 -0.152917439371167E-008  0.187755675223636E-007
  0.167722319962712E-007 -0.305531883619644E-008  0.127960667775825E-008 -0.408155731732290E-008 -0.559839207138091E-008 -0.183517351115265E-008  0.179329047918867E-007
  0.159104910700614E-007 -0.260558640407160E-008  0.216830351462885E-008 -0.453648066691277E-008 -0.502158670042903E-008 -0.212892427783935E-008  0.170135864898694E-007
  0.149156720635722E-007 -0.209041152028979E-008  0.294630941950293E-008 -0.493379559966442E-008 -0.447090824237488E-008 -0.240867381459146E-008  0.160201507824788E-007
  0.138040382083249E-007 -0.151828370640986E-008  0.359350619439423E-008 -0.526373873076173E-008 -0.394998464870762E-008 -0.267276435885290E-008  0.149557669098032E-007
  0.125949065810971E-007 -0.899107644179784E-009  0.409237525617004E-008 -0.551789079521982E-008 -0.346225819024854E-008 -0.291963794584324E-008  0.138242025851311E-007
  0.113102140292435E-007 -0.243984324611673E-009  0.442846111916866E-008 -0.568938105429918E-008 -0.301096033398510E-008 -0.314784551367237E-008  0.126297901786699E-007
  0.997401467417251E-008  0.435041125407867E-009  0.459076076682977E-008 -0.577305434086267E-008 -0.259908670062066E-008 -0.335605099140354E-008  0.113773952004442E-007
  0.861191745972860E-008  0.112524374842451E-008  0.457202875213166E-008 -0.576559340611697E-008 -0.222937566799075E-008 -0.354303744510607E-008  0.100723941185622E-007
  0.725048166295395E-008  0.181350897627059E-008  0.436898997432071E-008 -0.566560814583512E-008 -0.190428683662288E-008 -0.370771347586860E-008  0.872071493923284E-008
  0.591658431882317E-008  0.248662566857184E-008  0.398245294684759E-008 -0.547367163059981E-008 -0.162598258455295E-008 -0.384911403949285E-008  0.733177063791965E-008
  0.463677606156953E-008  0.313158188426642E-008  0.341732051669503E-008 -0.519231702039861E-008 -0.139631176748844E-008 -0.396640937992869E-008  0.726653740432787E-008
  0.343664200795836E-008  0.373586051138907E-008  0.268249805848546E-008 -0.482598848552498E-008 -0.121679577065752E-008 -0.405890476028290E-008  0.737629926589421E-008
  0.234018539982590E-008  0.428771969975587E-008  0.179069983290990E-008 -0.438094743458946E-008 -0.108861692971075E-008 -0.412604548091187E-008  0.745506079169529E-008
  0.136924921408919E-008  0.477645685540934E-008  0.758159121466887E-009 -0.386513737726862E-008 -0.101261033327419E-008 -0.416741808716569E-008  0.750214111211671E-008
  0.542989624282572E-009  0.519265290836173E-008 -0.395748842022454E-009 -0.328801234119817E-008 -0.989257456438754E-009 -0.418275641004052E-008  0.751720957393980E-008
 -0.122580757407086E-009  0.552838447132475E-008 -0.164896579601742E-008 -0.266032930995760E-008 -0.101868326501565E-008 -0.417193830032523E-008  0.750016572416706E-008
 -0.614973313769582E-009  0.577740553944913E-008 -0.297727388894796E-008 -0.199390916683275E-008 -0.110065605796633E-008 -0.413499360595708E-008  0.745113175330104E-008
 -0.925513745965821E-009  0.593528735398821E-008 -0.435487375009464E-008 -0.130137464967708E-008 -0.123459019343442E-008 -0.407209848008260E-008  0.737045559800426E-008
 -0.104953684689693E-008  0.599952352171585E-008 -0.575500040878713E-008 -0.595868405348132E-009 -0.141955145539684E-008 -0.398358171113480E-008  0.725882032756976E-008
 -0.986480920556784E-009  0.596958395211555E-008 -0.715056156490609E-008  0.109244665044322E-009 -0.165426469669648E-008 -0.386992227836703E-008  0.740656838444085E-008
 -0.739878471265917E-009  0.584692943319223E-008 -0.851478068780016E-008  0.800674386388297E-009 -0.193712561377760E-008 -0.373174708022305E-008  0.879417467586074E-008
 -0.317245757412736E-009  0.563497822913410E-008 -0.982183021568634E-008  0.146551004266709E-008 -0.226621301567620E-008 -0.356983328226155E-008  0.101424472329182E-007
  0.543213620117465E-009  0.519066800275624E-008 -0.982015312685292E-008  0.146901663563859E-008 -0.954487780462606E-009 -0.423628620818992E-008  0.993719468413932E-008
  0.106610191346581E-008  0.492647742638703E-008 -0.109825090911515E-007  0.206165404152560E-008 -0.134534230215128E-008 -0.404267023706215E-008  0.111953975847234E-007
  0.172797088966149E-008  0.459112015466494E-008 -0.120526202725497E-007  0.260966526925555E-008 -0.177974815966419E-008 -0.382634000377640E-008  0.124066776314473E-007
  0.251296563831196E-008  0.419228570637928E-008 -0.130126830023542E-007  0.310388794060715E-008 -0.225481255655485E-008 -0.358856221504416E-008  0.135653901736914E-007
  0.340286197492803E-008  0.373890482476757E-008 -0.138476040594766E-007  0.353643673093933E-008 -0.276738804811543E-008 -0.333074328847471E-008  0.146666201202343E-007
  0.437752662156274E-008  0.324093821567691E-008 -0.145453197433818E-007  0.390087607116588E-008 -0.331409582851900E-008 -0.305442228870977E-008  0.157061027961751E-007
  0.541541985973549E-008  0.270913888974045E-008 -0.150970371513526E-007  0.419235918428676E-008 -0.389135059248077E-008 -0.276126232038818E-008  0.166801971214442E-007
  0.649412776076991E-008  0.215479842102756E-008 -0.154973918302160E-007  0.440773068022706E-008 -0.449538654018749E-008 -0.245304416961761E-008  0.175858829048854E-007
  0.759090877685327E-008  0.158947631593340E-008 -0.157445193013265E-007  0.454558496327233E-008 -0.512228395639306E-008 -0.213165480277103E-008  0.184207692588172E-007
  0.868324236784068E-008  0.102472509147287E-008 -0.158400386372600E-007  0.460628432501645E-008 -0.576799670529589E-008 -0.179907705207608E-008  0.191831077071428E-007
  0.974936546953500E-008  0.471815089555705E-009 -0.157889517368158E-007  0.459193245737766E-008 -0.642837971104208E-008 -0.145737849194856E-008  0.198718078898135E-007
  0.107687817584778E-007 -0.585337403141420E-010 -0.155994582244381E-007  0.450630558977805E-008 -0.709921677613424E-008 -0.110869868910628E-008  0.204864501765083E-007
  0.117227341595640E-007 -0.556405531548732E-009 -0.152826953816720E-007  0.435474119940760E-008 -0.777624836648487E-008 -0.755236150531828E-009  0.210272979893310E-007
  0.125946267180148E-007 -0.101292267305137E-008 -0.148524082496125E-007  0.414398793285845E-008 -0.845519881031005E-008 -0.399233883523021E-009  0.214953058763215E-007
  0.133703871588370E-007 -0.142045219079552E-008 -0.143245595486300E-007  0.388202113838293E-008 -0.913180330684134E-008 -0.429652790868753E-010  0.218921234561774E-007
  0.140387617626478E-007 -0.177278033000580E-008 -0.137168902776042E-007  0.357782604218996E-008 -0.980183424930552E-008  0.311281002816354E-009  0.222200943979560E-007
  0.145915357930048E-007 -0.206525078790311E-008 -0.130484425183550E-007  0.324115634303969E-008 -0.104611264842719E-007  0.661216664744017E-009  0.224822493601854E-007
  0.150236749916678E-007 -0.229486283028500E-008 -0.123390561638399E-007  0.288227499747201E-008 -0.111056019868380E-007  0.100456929707312E-008  0.226822915616998E-007
  0.153333857211634E-007 -0.246032394973740E-008 -0.116088525718227E-007  0.251167848105371E-008 -0.117312934004590E-007  0.133909881484003E-008  0.228245729761424E-007
  0.155220929958387E-007 -0.256206310549659E-008 -0.108777188649414E-007  0.213982431483345E-008 -0.123343663261055E-007  0.166261166973701E-008  0.229140614222738E-007
  0.155943389218606E-007 -0.260219082679060E-008 -0.101648047672947E-007  0.177684836981226E-008 -0.129111405128544E-007  0.197297855739126E-008  0.229562940467733E-007
  0.155576033113427E-007 -0.258442177928626E-008 -0.948804417150563E-008  0.143230340736448E-008 -0.134581100369540E-007  0.226814688079402E-008  0.229573170191079E-007
  0.154220523170218E-007 -0.251395574785647E-008 -0.886371345700184E-008  0.111490652966129E-008 -0.139719614046856E-007  0.254616043160492E-008  0.229236080505835E-007
  0.152002237504187E-007 -0.239731136227679E-008 -0.830603698944472E-008  0.832312394982644E-009 -0.144495914091188E-007  0.280516898184216E-008  0.228619800203411E-007
  0.149066543394475E-007 -0.224213413557600E-008 -0.782684836647925E-008  0.590916961238527E-009 -0.148881228127593E-007  0.304344384501717E-008  0.227794637475465E-007
  0.145574608126749E-007 -0.205696991616198E-008 -0.743531594903431E-008  0.395692107118824E-009 -0.152849190974232E-007  0.325939253271904E-008  0.226831691338171E-007
  0.141698855992510E-007 -0.185101520659886E-008 -0.713773940232307E-008  0.250064095481934E-009 -0.156375976075005E-007  0.345156627161140E-008  0.225801253118967E-007
  0.137618152747277E-007 -0.163385329534037E-008 -0.693741854275916E-008  0.155830307512436E-009 -0.159440414514373E-007  0.361867742154770E-008  0.224771009535512E-007
  0.133512900511390E-007 -0.141517656500993E-008 -0.683460354088081E-008  0.113123544355324E-009 -0.162024098787435E-007  0.375960310546912E-008  0.223804125686879E-007
  0.129560087428579E-007 -0.120451002330954E-008 -0.682651927600197E-008  0.120420927434021E-009 -0.164111483142965E-007  0.387339823857523E-008  0.222957250895501E-007
  0.125928470341199E-007 -0.101093702740569E-008 -0.690746959867818E-008  0.174597729194763E-009 -0.165689947253917E-007  0.395930137419199E-008  0.222278558039408E-007
  0.122773987046805E-007 -0.842840021049224E-009 -0.706901521040772E-008  0.271026634751619E-009 -0.166749876740692E-007  0.401673940330196E-008  0.221805966673993E-007
  0.120235507414922E-007 -0.707660558570258E-009 -0.730022155793257E-008  0.403718591809497E-009 -0.167284702717217E-007  0.404533479140110E-008  0.221565641154418E-007
  0.118431034568434E-007 -0.611685395566902E-009 -0.758797063891160E-008  0.565500394922910E-009 -0.167290948887787E-007  0.404490582090688E-008  0.221570914012447E-007
  0.117454445744328E-007 -0.559865267017223E-009 -0.791732881104079E-008  0.748225632915270E-009 -0.166768246651641E-007  0.401546957093746E-008  0.221821710871958E-007
  0.117372850206469E-007 -0.555669988468244E-009 -0.827196186551518E-008  0.943011934612843E-009 -0.165719357277152E-007  0.395724064654997E-008  0.222304547936067E-007
  0.118224639467586E-007 -0.600986808326952E-009 -0.863458686370007E-008  0.114050126284114E-008 -0.164150155662927E-007  0.387063169017786E-008  0.222993084294627E-007
  0.120018267595590E-007 -0.696060900726314E-009 -0.898744971622734E-008  0.133112878628860E-008 -0.162069618946562E-007  0.375624566449021E-008  0.223849184407816E-007
  0.122731814321477E-007 -0.839480390545841E-009 -0.931281874369498E-008  0.150540286096440E-008 -0.159489794671266E-007  0.361487694638104E-008  0.224824424232635E-007
  0.126313318632011E-007 -0.102821462529384E-008 -0.959347744644274E-008  0.165418106364574E-008 -0.156425746126733E-007  0.344749809575323E-008  0.225861860603721E-007
  0.130681904187494E-007 -0.125768534128505E-008 -0.981320992752708E-008  0.176893455363112E-008 -0.152895494461643E-007  0.325525736701540E-008  0.226897996397929E-007
  0.135729658360422E-007 -0.152189317386263E-008 -0.995726250607194E-008  0.184199915888344E-008 -0.148919937611146E-007  0.303946466789693E-008  0.227864777093472E-007
  0.141324239356419E-007 -0.181357336525049E-008 -0.100127719193181E-007  0.186680350853995E-008 -0.144522749523155E-007  0.280158610348607E-008  0.228691536558140E-007
  0.147312132246605E-007 -0.212439315864866E-008 -0.996914875531121E-008  0.183806254471686E-008 -0.139730271972938E-007  0.254322784130761E-008  0.229306798983474E-007
  0.153522486846177E-007 -0.244517654153945E-008 -0.981840480698179E-008  0.175194265438947E-008 -0.134571386130263E-007  0.226612495943115E-008  0.229639894114138E-007
  0.159771470948295E-007 -0.276615007945913E-008 -0.955541849469379E-008  0.160618248666182E-008 -0.129077359477276E-007  0.197212825891452E-008  0.229622370061842E-007
  0.165866986207658E-007 -0.307720806004969E-008 -0.917812748439656E-008  0.140017429645994E-008 -0.123281689542161E-007  0.166318905741666E-008  0.229189175796114E-007
  0.171613676891401E-007 -0.336818562773224E-008 -0.868764483260280E-008  0.113500023068221E-008 -0.117219917500897E-007  0.134134487100286E-008  0.228279639110570E-007
  0.176818081856707E-007 -0.362913373736650E-008 -0.808829499024437E-008  0.813423307009892E-009 -0.110929436209321E-007  0.100870341581121E-008  0.226838253955474E-007
  0.181293808894907E-007 -0.385058977586597E-008 -0.738756638733001E-008  0.439835611918736E-009 -0.104449274144856E-007  0.667428068052592E-009  0.224815292917975E-007
  0.184866604241898E-007 -0.402383305858973E-008 -0.659598213538596E-008  0.201613767642498E-010 -0.978198696388798E-008  0.319721755509647E-009  0.222167274123222E-007
  0.187379172225956E-007 -0.414112400228867E-008 -0.572688992955116E-008 -0.438278242520537E-009 -0.910828277876529E-008 -0.321881543798844E-010  0.218857295763549E-007
  0.188695639072489E-007 -0.419591612743971E-008 -0.479617681956768E-008 -0.926936570073659E-009 -0.842806656427760E-008 -0.386064915479861E-009  0.214855272841773E-007
  0.188705519380991E-007 -0.418303840865368E-008 -0.382191367598758E-008 -0.143624489730231E-008 -0.774565456633860E-008 -0.739677183061487E-009  0.210138073039819E-007
  0.187327095017823E-007 -0.409884365030661E-008 -0.282393888927598E-008 -0.195584009142815E-008 -0.706539981209078E-008 -0.109081274123747E-008  0.204689586419212E-007
  0.184510100133958E-007 -0.394131566406263E-008 -0.182339071390061E-008 -0.247481582631621E-008 -0.639166387132441E-008 -0.143729285837500E-008  0.198500722612639E-007
  0.180237646384437E-007 -0.371013858274485E-008 -0.842199424038017E-009 -0.298198268209666E-008 -0.572878731080035E-008 -0.177698394710033E-008  0.191569365898495E-007
  0.174527306978250E-007 -0.340672426743946E-008  0.974479313660466E-010 -0.346613710962293E-008 -0.508106062242516E-008 -0.210781003492815E-008  0.183900275037791E-007
  0.167431352843242E-007 -0.303419520136940E-008  0.973655908646665E-009 -0.391633225481698E-008 -0.445269433866074E-008 -0.242776432953149E-008  0.175504960244636E-007
  0.159036102172309E-007 -0.259732809759713E-008  0.176536873981621E-008 -0.432214040543588E-008 -0.384778964040852E-008 -0.273491946071618E-008  0.166401535944561E-007
  0.149460386954752E-007 -0.210245683337851E-008  0.245290548681519E-008 -0.467390307998577E-008 -0.327030890741965E-008 -0.302743656248389E-008  0.156614555958230E-007
  0.138853198015571E-007 -0.155733780786842E-008  0.301846379446690E-008 -0.496296349650463E-008 -0.272404754455185E-008 -0.330357407692613E-008  0.146174881463536E-007
  0.127390520527569E-007 -0.970984441786773E-009  0.344658456308031E-008 -0.518187436210285E-008 -0.221260579586119E-008 -0.356169636596040E-008  0.135119588619824E-007
  0.115271462405293E-007 -0.353468616692191E-009  0.372456033678835E-008 -0.532457994848916E-008 -0.173936300409713E-008 -0.380028144080562E-008  0.123492002799302E-007
  0.102713772276918E-007  0.284300289898913E-009  0.384277884134184E-008 -0.538656112486858E-008 -0.130745193000506E-008 -0.401792576663702E-008  0.111342010289455E-007
  0.899488264436207E-008  0.930818912461212E-009  0.379499263814611E-008 -0.536495140852675E-008 -0.919735441092860E-009 -0.421335069283953E-008  0.987269662733300E-008
  0.772162648393560E-008  0.157423994368645E-008  0.357850400845533E-008 -0.525860758743351E-008 -0.578785246612884E-009 -0.438540960086868E-008  0.857144783301097E-008
  0.647583497842708E-008  0.220263868963897E-008  0.319426494760977E-008 -0.506814718911740E-008 -0.286862760963822E-009 -0.453309216589637E-008  0.724558334876868E-008
  0.528142599165277E-008  0.280427994772162E-008  0.264688369707350E-008 -0.479594468935209E-008 -0.459014714224973E-010 -0.465552583846082E-008  0.726922292388090E-008
  0.416143955590249E-008  0.336787581653423E-008  0.194454297807894E-008 -0.444608435718723E-008  0.142506755493102E-009 -0.475198350882723E-008  0.737252465062371E-008
  0.313749187434644E-008  0.388283904120898E-008  0.109882524840430E-008 -0.402427760473595E-008  0.277123712695156E-009 -0.482188504885201E-008  0.744667011782263E-008
  0.222926006019818E-008  0.433952097798859E-008  0.124456105993304E-009 -0.353774390111755E-008  0.357074296860813E-009 -0.486480093137959E-008  0.749100972471812E-008
  0.145401609475693E-008  0.472942591737188E-008 -0.961033315506040E-009 -0.299505353458776E-008  0.381851916139796E-009 -0.488045534765735E-008  0.750522751902594E-008
  0.826218972389675E-009  0.504540237373646E-008 -0.213771260921338E-008 -0.240594398525722E-008  0.351322387134242E-009 -0.486872539997668E-008  0.748922590634024E-008
  0.357177514992658E-009  0.528180227129367E-008 -0.338371845395690E-008 -0.178110396025403E-008  0.265723517069289E-009 -0.482964664512307E-008  0.744311195467311E-008
  0.547911413512890E-010  0.543461147830941E-008 -0.467576814884418E-008 -0.113194338185523E-008  0.125663344222549E-009 -0.476341121886303E-008  0.736719953497345E-008
 -0.766243686120566E-010  0.550153473017358E-008 -0.598970645106536E-008 -0.470334264721087E-009 -0.678866326866354E-010 -0.467037068012513E-008  0.726203612010039E-008
 -0.364214693615029E-010  0.548205233233433E-008 -0.730107343596355E-008  0.191645781323799E-009 -0.313598713815691E-009 -0.455103372291431E-008  0.730866715390285E-008
  0.172384696099140E-009  0.537742467431344E-008 -0.858567652502990E-008  0.841988078568088E-009 -0.609800230474005E-009 -0.440606519498825E-008  0.863864650268938E-008
  0.543213620117465E-009  0.519066800275624E-008 -0.982015312685292E-008  0.146901663563859E-008 -0.954487780462606E-009 -0.423628620818992E-008  0.993719468413932E-008
  0.160408837342749E-008  0.464600933839459E-008 -0.981802863170257E-008  0.147360402574831E-008  0.202234516015508E-009 -0.482144728899379E-008  0.100103790519564E-007
  0.205982421775513E-008  0.441494994505036E-008 -0.109013473238431E-007  0.202504420533186E-008 -0.196154553052177E-009 -0.462388121909189E-008  0.111778291601459E-007
  0.264207657253984E-008  0.411922700788806E-008 -0.119042471428423E-007  0.253757928702879E-008 -0.639013581098143E-009 -0.440321718579248E-008  0.123128144836294E-007
  0.333706274554986E-008  0.376554835676989E-008 -0.128108069037499E-007  0.300304093910313E-008 -0.112340407362390E-008 -0.416075616058902E-008  0.134071653631193E-007
  0.412890530200655E-008  0.336171314244634E-008 -0.136074576397833E-007  0.341437027106936E-008 -0.164612662271471E-008 -0.389793739079825E-008  0.144543782902163E-007
  0.500003041441101E-008  0.291642901858114E-008 -0.142832616059724E-007  0.376577272016017E-008 -0.220374530641381E-008 -0.361633598775807E-008  0.154491656804494E-007
  0.593160481514152E-008  0.243910555353121E-008 -0.148301270136246E-007  0.405283778347128E-008 -0.279261229288450E-008 -0.331765272510161E-008  0.163872126350143E-007
  0.690399630648533E-008  0.193963159544702E-008 -0.152429473741497E-007  0.427262776065986E-008 -0.340889420866952E-008 -0.300370558027030E-008  0.172650391121658E-007
  0.789724928121288E-008  0.142814180859079E-008 -0.155196679801109E-007  0.442373018429067E-008 -0.404859902378443E-008 -0.267642021015057E-008  0.180799239626310E-007
  0.889156215492926E-008  0.914777395612552E-009 -0.156612764609032E-007  0.450627311795380E-008 -0.470760371218475E-008 -0.233781877080287E-008  0.188298624880808E-007
  0.986775331627789E-008  0.409446521931634E-009 -0.156717176644713E-007  0.452190276870300E-008 -0.538168229419781E-008 -0.199000775272282E-008  0.195135414639473E-007
  0.108077062791064E-007 -0.784079014960307E-010 -0.155577381586830E-007  0.447372437729102E-008 -0.606653405268955E-008 -0.163516589354087E-008  0.201303257669693E-007
  0.116947818135369E-007 -0.540029319999071E-009 -0.153286636216057E-007  0.436620600901384E-008 -0.675781172615437E-008 -0.127552997913997E-008  0.206802493862505E-007
  0.125141869339955E-007 -0.967549763748636E-009 -0.149961153881177E-007  0.420504983242470E-008 -0.745114934315125E-008 -0.913381566016858E-009  0.211640070492835E-007
  0.132532935350220E-007 -0.135416970685183E-008 -0.145736753734478E-007  0.399703176758572E-008 -0.814218976854769E-008 -0.551031237111173E-009  0.215829459253738E-007
  0.139018973548115E-007 -0.169430920673297E-008 -0.140765065105724E-007  0.374981483662855E-008 -0.882661149266141E-008 -0.190804307742854E-009  0.219390527014520E-007
  0.144524136367750E-007 -0.198373024970092E-008 -0.135209404428399E-007  0.347174225252576E-008 -0.950015485915785E-008  0.164975964628772E-009  0.222349377552053E-007
  0.149000039603183E-007 -0.221961823717708E-008 -0.129240419739738E-007  0.317161055836154E-008 -0.101586473069991E-007  0.514002982227460E-009  0.224738114512589E-007
  0.152426325365372E-007 -0.240063284457394E-008 -0.123031622107630E-007  0.285843586840941E-008 -0.107980272844918E-007  0.854003731161566E-009  0.226594541639130E-007
  0.154810517546131E-007 -0.252691506998513E-008 -0.116754904996346E-007  0.254121308197148E-008 -0.114143679379245E-007  0.118275374505854E-008  0.227961764773803E-007
  0.156187168322191E-007 -0.260006130354942E-008 -0.110576175722822E-007  0.222867963165885E-008 -0.120038983355012E-007  0.149809458161155E-008  0.228887689555754E-007
  0.156616350740750E-007 -0.262304900480914E-008 -0.104651197376050E-007  0.192908202204803E-008 -0.125630248671367E-007  0.179794651849564E-008  0.229424394106613E-007
  0.156181509850354E-007 -0.260013986830246E-008 -0.991217434095674E-008  0.164996399353766E-008 -0.130883500730554E-007  0.208032644471956E-008  0.229627374437568E-007
  0.154986754952634E-007 -0.253673670788443E-008 -0.941121561646649E-008  0.139796744651388E-008 -0.135766906132771E-007  0.234336098145445E-008  0.229554625681278E-007
  0.153153667595955E-007 -0.243921696089506E-008 -0.897263939252587E-008  0.117866366363346E-008 -0.140250948618010E-007  0.258529920273767E-008  0.229265594465014E-007
  0.150817683957765E-007 -0.231474223355522E-008 -0.860456352401097E-008  0.996412083600011E-009 -0.144308565355451E-007  0.280453030333088E-008  0.228819960056099E-007
  0.148124165062984E-007 -0.217103936280140E-008 -0.831264729170273E-008  0.854253133075686E-009 -0.147915301742854E-007  0.299958872657089E-008  0.228276271942834E-007
  0.145224254961328E-007 -0.201617620587661E-008 -0.809997817222075E-008  0.753837884208799E-009 -0.151049426666559E-007  0.316917036756275E-008  0.227690496588474E-007
  0.142270626518568E-007 -0.185832362539793E-008 -0.796702499468370E-008  0.695395913132617E-009 -0.153692046072439E-007  0.331214090302503E-008  0.227114487180427E-007
  0.139413199627877E-007 -0.170551647271418E-008 -0.791165759522088E-008  0.677742259666200E-009 -0.155827196141978E-007  0.342754477958245E-008  0.226594425964457E-007
  0.136794980169034E-007 -0.156541953804045E-008 -0.792923585352910E-008  0.698324170221655E-009 -0.157441929933692E-007  0.351461214163038E-008  0.226169360091429E-007
  0.134548080806817E-007 -0.144510564694284E-008 -0.801276187140530E-008  0.753306649808610E-009 -0.158526381974896E-007  0.357276467712845E-008  0.225869866494079E-007
  0.132790054625044E-007 -0.135084693112478E-008 -0.815309437555999E-008  0.837690244471481E-009 -0.159073824007133E-007  0.360162018761272E-008  0.225716964138595E-007
  0.131620595266780E-007 -0.128793424249553E-008 -0.833921663307454E-008  0.945466251236149E-009 -0.159080702843079E-007  0.360099627866968E-008  0.225721325852604E-007
  0.131118727838439E-007 -0.126052031966391E-008 -0.855855507293977E-008  0.106979696070170E-008 -0.158546662651372E-007  0.357091210554771E-008  0.225882874325381E-007
  0.131340530115390E-007 -0.127149532441079E-008 -0.879733815433375E-008  0.120321720021260E-008 -0.157474562622946E-007  0.351158427700025E-008  0.226190775692886E-007
  0.132317445558989E-007 -0.132239969557301E-008 -0.904098645989490E-008  0.133785935574611E-008 -0.155870461960463E-007  0.342343117449071E-008  0.226623836327061E-007
  0.134055247995353E-007 -0.141337487468595E-008 -0.927452678267547E-008  0.146568451661541E-008 -0.153743607676379E-007  0.330706350570803E-008  0.227151280799121E-007
  0.136533660795853E-007 -0.154314975121895E-008 -0.948301635342021E-008  0.157872058947668E-008 -0.151106391707754E-007  0.316328370832636E-008  0.227733828162006E-007
  0.139706677750841E-007 -0.170907151619681E-008 -0.965197149393487E-008  0.166930061732953E-008 -0.147974306558034E-007  0.299307765031272E-008  0.228325038239658E-007
  0.143503542883292E-007 -0.190717181899574E-008 -0.976778454472033E-008  0.173028892378232E-008 -0.144365870598932E-007  0.279760587154110E-008  0.228872774573912E-007
  0.147830401943997E-007 -0.213227042588362E-008 -0.981812277934145E-008  0.175529750859519E-008 -0.140302544684478E-007  0.257819604786380E-008  0.229320762652263E-007
  0.152572570189417E-007 -0.237811408066442E-008 -0.979229753831564E-008  0.173887907807804E-008 -0.135808634652528E-007  0.233633054254602E-008  0.229610135396120E-007
  0.157597371046250E-007 -0.263754309937656E-008 -0.968159307607551E-008  0.167669589089065E-008 -0.130911166632761E-007  0.207363599824730E-008  0.229680903348827E-007
  0.162757481079987E-007 -0.290268551443880E-008 -0.947954855806531E-008  0.156565946744218E-008 -0.125639755937771E-007  0.179187003951226E-008  0.229473327705803E-007
  0.167894696784215E-007 -0.316517003048249E-008 -0.918218351302677E-008  0.140403464042829E-008 -0.120026452121490E-007  0.149290727030082E-008  0.228929141852815E-007
  0.172844041246874E-007 -0.341635224404911E-008 -0.878816199624938E-008  0.119150839266223E-008 -0.114105567184658E-007  0.117872565648282E-008  0.227992628314874E-007
  0.177438097235639E-007 -0.364755200011030E-008 -0.829888972151870E-008  0.929221399056997E-009 -0.107913491663148E-007  0.851390897318247E-009  0.226611540061810E-007
  0.181511471314720E-007 -0.385028873193521E-008 -0.771854072205815E-008  0.619759981244511E-009 -0.101488488327738E-007  0.513041845698674E-009  0.224737867681682E-007
  0.184905269601538E-007 -0.401651516255024E-008 -0.705401309778834E-008  0.267108649259787E-009 -0.948704749406460E-008  0.165874028368294E-009  0.222328473720431E-007
  0.187471473681571E-007 -0.413883770273585E-008 -0.631481250519326E-008 -0.123431618811125E-009 -0.881007883732818E-008 -0.187874896260458E-009  0.219345598065003E-007
  0.189077103541815E-007 -0.421072264808135E-008 -0.551286694296549E-008 -0.545361802849428E-009 -0.812219365488745E-008 -0.545941251639018E-009  0.215757258589815E-007
  0.189608055155387E-007 -0.422667908583334E-008 -0.466227572259101E-008 -0.991133792308258E-009 -0.742773375712780E-008 -0.906050234284857E-009  0.211537554245783E-007
  0.188972512926915E-007 -0.418241679270071E-008 -0.377899817825050E-008 -0.145232559385445E-008 -0.673110459256002E-008 -0.126593104341432E-008  0.206666891040048E-007
  0.187103847731742E-007 -0.407497271623364E-008 -0.288049098934331E-008 -0.191984078757008E-008 -0.603674733878459E-008 -0.162333098879264E-008  0.201132150994538E-007
  0.183962901566661E-007 -0.390280515005881E-008 -0.198529901485590E-008 -0.238412355336141E-008 -0.534910939670918E-008 -0.197602896795920E-008  0.194926795735672E-007
  0.179539621957011E-007 -0.366585271982307E-008 -0.111261503440973E-008 -0.283538799934889E-008 -0.467261533578653E-008 -0.232184965350934E-008  0.188050961288041E-007
  0.173853959472634E-007 -0.336555771747586E-008 -0.281813459736541E-009 -0.326384911301376E-008 -0.401163665687532E-008 -0.265867447083195E-008  0.180511519292971E-007
  0.166956038591399E-007 -0.300485017615025E-008  0.488024682278586E-009 -0.365996022905537E-008 -0.337046190357696E-008 -0.298445424634550E-008  0.172322171622212E-007
  0.158925542005333E-007 -0.258809893286360E-008  0.117858845441687E-008 -0.401463890081301E-008 -0.275326659427785E-008 -0.329721899831992E-008  0.163503575963516E-007
  0.149870359938433E-007 -0.212102708170927E-008  0.177279852462217E-008 -0.431948639898435E-008 -0.216408397014863E-008 -0.359508888740574E-008  0.154083594949010E-007
  0.139924491346369E-007 -0.161059378486823E-008  0.225524564326843E-008 -0.456699002605816E-008 -0.160677589481466E-008 -0.387628307338643E-008  0.144097721021640E-007
  0.129245285077564E-007 -0.106484817277005E-008  0.261258993627225E-008 -0.475070389809373E-008 -0.108500536032464E-008 -0.413912718739994E-008  0.133589871096065E-007
  0.118010047630653E-007 -0.492758906676586E-009  0.283391498274747E-008 -0.486540637243300E-008 -0.602209367383929E-009 -0.438206376024760E-008  0.122613792810079E-007
  0.106412119824628E-007  0.959816836524019E-010  0.291102428248480E-008 -0.490722754252101E-008 -0.161573875023718E-009 -0.460365544715351E-008  0.111235612364152E-007
  0.946565257835256E-008  0.691169128057399E-009  0.283867148266173E-008 -0.487375072885471E-008  0.233989577838849E-009 -0.480259471706085E-008  0.995385876311682E-008
  0.829552807386583E-008  0.128230759084294E-008  0.261472113901637E-008 -0.476407315987234E-008  0.581865731106732E-009 -0.497770765667487E-008  0.876325303258218E-008
  0.715224985361482E-008  0.185884166053071E-008  0.224023187485871E-008 -0.457883833462526E-008  0.879755081419298E-009 -0.512795950354611E-008  0.756825357961332E-008
  0.605694129079809E-008  0.241038796485360E-008  0.171946142221431E-008 -0.432023112828369E-008  0.112569055966902E-008 -0.525245903151110E-008  0.722516001359379E-008
  0.502994417088180E-008  0.292696372301269E-008  0.105979276735163E-008 -0.399193793194520E-008  0.131805231079282E-008 -0.535046524449243E-008  0.732088272150908E-008
  0.409034232557310E-008  0.339920800198071E-008  0.271582639661874E-009 -0.359907343054323E-008  0.145557963533275E-008 -0.542138580146400E-008  0.738984564170655E-008
  0.325551495093604E-008  0.381858797312656E-008 -0.632063966177706E-009 -0.314807466457276E-008  0.153738014558098E-008 -0.546478496075870E-008  0.743112076880416E-008
  0.254073093950874E-008  0.417758817850173E-008 -0.163558767030966E-008 -0.264656554742301E-008  0.156293565880065E-008 -0.548038258066160E-008  0.744437566078526E-008
  0.195879333576012E-008  0.446987614777666E-008 -0.272132755336269E-008 -0.210319193952998E-008  0.153210591758807E-008 -0.546806060029793E-008  0.742950924580284E-008
  0.151974620748909E-008  0.469044355691155E-008 -0.386992750118578E-008 -0.152743658377384E-008  0.144512819801183E-008 -0.542786091285210E-008  0.738661543277246E-008
  0.123064869044643E-008  0.483571615809013E-008 -0.506078336023140E-008 -0.929413633378029E-009  0.130261582483600E-008 -0.535998527585257E-008  0.731597355951456E-008
  0.109542216881289E-008  0.490363329720744E-008 -0.627251848658589E-008 -0.319647383754824E-009  0.110555179031946E-008 -0.526479892932916E-008  0.721804760892779E-008
  0.111477479692652E-008  0.489369017650952E-008 -0.748347675451111E-008  0.291161042733329E-009  0.855280448287502E-009 -0.514282994450632E-008  0.762502714320655E-008
  0.128620623041825E-008  0.480694853009370E-008 -0.867222256631351E-008  0.892363426308161E-009  0.553497338890942E-009 -0.499476375751312E-008  0.882115048093622E-008
