  0.133985477731726E-010 -0.242159559489997E-011 -0.180738044632487E-010  0.326536693888587E-011  0.293800478020612E-010 -0.531056345779383E-011  0.376045147300451E-010
  0.160191694363556E-010 -0.287728298818314E-011 -0.176534595106517E-010  0.319270846347386E-011  0.321842703819956E-010 -0.576950480402335E-011  0.406920683415633E-010
  0.185992007549989E-010 -0.333119311737105E-011 -0.170269575954202E-010  0.307596108089891E-011  0.347874578062492E-010 -0.621155563927489E-011  0.436480879499906E-010
  0.211226919871139E-010 -0.376688452764338E-011 -0.161979243868333E-010  0.292900039699367E-011  0.371737096167455E-010 -0.659209104335305E-011  0.464397137034314E-010
  0.235738419739926E-010 -0.418011607105595E-011 -0.151714460208711E-010  0.275327782722302E-011  0.393278667411429E-010 -0.690323481983394E-011  0.490436658846818E-010
  0.259369950921738E-010 -0.458205398276421E-011 -0.139540793036804E-010  0.253782654075398E-011  0.412351896594352E-010 -0.718998724848266E-011  0.514480898007741E-010
  0.281974356191871E-010 -0.496110669887172E-011 -0.125532469791204E-010  0.228989829776300E-011  0.428837569034823E-010 -0.742475195556272E-011  0.536345471706209E-010
  0.303408821374487E-010 -0.531689177049675E-011 -0.109775918061686E-010  0.201395239716682E-011  0.442627465095010E-010 -0.760771655526718E-011  0.555918231169935E-010
  0.323537794937834E-010 -0.564789865794667E-011 -0.923692241562549E-011  0.170982678196461E-011  0.453629529676352E-010 -0.774293767441126E-011  0.573117495552939E-010
  0.342234316317977E-010 -0.594887601136203E-011 -0.734207549254031E-011  0.137884011658223E-011  0.461770380514749E-010 -0.782626309925624E-011  0.587875885388541E-010
  0.359379429013434E-010 -0.622087163177968E-011 -0.530483492670736E-011  0.102479830630401E-011  0.466993644598658E-010 -0.786127403977290E-011  0.600168677837511E-010
  0.374864111853603E-010 -0.646089533698992E-011 -0.313790507160100E-011  0.650425914559647E-012  0.469261977913262E-010 -0.784580211928344E-011  0.609986255077499E-010
  0.388589221876834E-010 -0.666996998907050E-011 -0.854845979165380E-012  0.256373136556406E-012  0.468555782197008E-010 -0.778866346401729E-011  0.617362275854443E-010
  0.400467336791985E-010 -0.684271767783393E-011  0.153009939477799E-011 -0.149303757487447E-012  0.464877121777399E-010 -0.767324604736897E-011  0.622324023042992E-010
  0.410420953315739E-010 -0.698890781822745E-011  0.400183516672319E-011 -0.577142538732376E-012  0.458240864398603E-010 -0.754397506631987E-011  0.625009391932328E-010
  0.418388131562056E-010 -0.707984803365558E-011  0.654510453509278E-011 -0.994859696355683E-012  0.448694260022619E-010 -0.730574696729909E-011  0.625382513925129E-010
  0.424313298369124E-010 -0.715469493476567E-011  0.914355628409445E-011 -0.143746991757519E-011  0.436283151888024E-010 -0.708622119233475E-011  0.623769413762826E-010
  0.428159896073405E-010 -0.718340786991339E-011  0.117810441673693E-010 -0.187469746738385E-011  0.421091207532556E-010 -0.679790806585813E-011  0.620199014401306E-010
  0.429900612808839E-010 -0.718172247051005E-011  0.144407941026585E-010 -0.231807477163858E-011  0.403208883489412E-010 -0.648745516821862E-011  0.614935696859535E-010
  0.429522645625889E-010 -0.715338442942724E-011  0.171059704029755E-010 -0.276814325855364E-011  0.382747889659116E-010 -0.616219816817069E-011  0.608214695135090E-010
  0.427028009376980E-010 -0.707141541912434E-011  0.197598009476547E-010 -0.319496143847154E-011  0.359839762400400E-010 -0.575756044528701E-011  0.600180286864282E-010
  0.422429697884144E-010 -0.695645053673317E-011  0.223853204044529E-010 -0.361623467256309E-011  0.334626260610138E-010 -0.533033603619425E-011  0.591200502930470E-010
  0.415755226604543E-010 -0.681134276388586E-011  0.249658270217422E-010 -0.403050877202019E-011  0.307267456365594E-010 -0.488385910206320E-011  0.581586326526339E-010
  0.407045979724959E-010 -0.663634496896048E-011  0.274849285057328E-010 -0.443445635251110E-011  0.277938377650816E-010 -0.441739501074127E-011  0.571663636964070E-010
  0.396355293351921E-010 -0.644917268156246E-011  0.299264917324600E-010 -0.484327005781981E-011  0.246825377394552E-010 -0.395444798544454E-011  0.561825757949676E-010
  0.383750950930772E-010 -0.621716560995438E-011  0.322750323401391E-010 -0.521959136112099E-011  0.214129108936465E-010 -0.344808401039492E-011  0.552324598742874E-010
  0.369311348542076E-010 -0.596459584685537E-011  0.345154585932786E-010 -0.558381328804033E-011  0.180058278212898E-010 -0.292816549156869E-011  0.543577468792682E-010
  0.353127486486175E-010 -0.566677732058210E-011  0.366334337245916E-010 -0.590845267946901E-011  0.144831965307821E-010 -0.238421206594908E-011  0.535860548288558E-010
  0.335301952439727E-010 -0.537090331349754E-011  0.386154149206916E-010 -0.623631038004278E-011  0.108676830836875E-010 -0.183634310612110E-011  0.529587850991941E-010
  0.315946630362452E-010 -0.504231820531337E-011  0.404485895415657E-010 -0.652978305817977E-011  0.718258112455119E-011 -0.127479970088852E-011  0.524935507820366E-010
  0.295186556299156E-010 -0.469742151995373E-011  0.421214117449400E-010 -0.680163478461920E-011  0.345159190611314E-011 -0.703530910924323E-012  0.522137547001832E-010
  0.273151477811188E-010 -0.433176784887558E-011  0.436229110359066E-010 -0.704373587399772E-011 -0.301172790231856E-012 -0.127100822595238E-012  0.521301632349361E-010
  0.249983027490251E-010 -0.394585101612676E-011  0.449435785147169E-010 -0.725327114146799E-011 -0.405159280181885E-011  0.447274208552163E-012  0.522454752530841E-010
  0.225827721006878E-010 -0.353121620518002E-011  0.460748150085655E-010 -0.741875258585982E-011 -0.777537667755241E-011  0.997814546273103E-012  0.525524764204752E-010
  0.200841675431405E-010 -0.314373337225589E-011  0.470095539931724E-010 -0.759236268972283E-011 -0.114488287240514E-010  0.159960871724636E-011  0.530506492690849E-010
  0.175181882444468E-010 -0.271314483680433E-011  0.477415499694929E-010 -0.770131958736943E-011 -0.150479344347672E-010  0.213972973393496E-011  0.537005905201863E-010
  0.149014087962599E-010 -0.228721127028890E-011  0.482662954738730E-010 -0.779041183882339E-011 -0.185498951132295E-010  0.268830594335706E-011  0.544871412211262E-010
  0.122504444374524E-010 -0.185667592613553E-011  0.485803397114663E-010 -0.784683621559249E-011 -0.219320643887090E-010  0.322318853289746E-011  0.553755977230990E-010
  0.958234938637073E-011 -0.143457788231305E-011  0.486818060708749E-010 -0.788097231855999E-011 -0.251731002041523E-010  0.376900193503640E-011  0.563357574513522E-010
  0.752645719620594E-011 -0.111417327309652E-011  0.463746178626201E-010 -0.744501124078875E-011 -0.258729281038653E-010  0.383044978404696E-011  0.542947547711525E-010
  0.478371408755166E-011 -0.677295354659744E-012  0.462603386995694E-010 -0.743874824742045E-011 -0.290369972840166E-010  0.435462758342090E-011  0.555043376877981E-010
  0.205840892858937E-011 -0.240617267163512E-012  0.459276213397217E-010 -0.739796025716008E-011 -0.320143086110131E-010  0.484868626989205E-011  0.567162020809562E-010
 -0.632046629813442E-012  0.193084958278935E-012  0.453786562660784E-010 -0.732186121576244E-011 -0.347860532957296E-010  0.530910232869318E-011  0.578917751034957E-010
 -0.327043559891491E-011  0.610832822593495E-012  0.446170727433578E-010 -0.722098429826056E-011 -0.373349904309961E-010  0.577694295601947E-011  0.590010231874996E-010
 -0.584003486479890E-011  0.102588542052992E-011  0.436477312070828E-010 -0.708012515525617E-011 -0.396447587408382E-010  0.618260286767175E-011  0.600025073088235E-010
 -0.832444204269082E-011  0.142798693176805E-011  0.424769633844311E-010 -0.690978155518221E-011 -0.417011708934129E-010  0.655900008225407E-011  0.608715639127608E-010
 -0.107078737096236E-010  0.181711760632268E-011  0.411123082467596E-010 -0.670476998827006E-011 -0.434914367361102E-010  0.688699933441539E-011  0.615795718020843E-010
 -0.129751886524463E-010  0.218781140128419E-011  0.395625979229898E-010 -0.647170788940384E-011 -0.450046715036024E-010  0.718234396103359E-011  0.621064304389300E-010
 -0.151120283442096E-010  0.253832148278380E-011  0.378378122037542E-010 -0.621098680880348E-011 -0.462316963018769E-010  0.744011829171809E-011  0.624323828157628E-010
 -0.171048827402729E-010  0.286754685267308E-011  0.359490398616265E-010 -0.592103895421476E-011 -0.471652021422980E-010  0.764846837940438E-011  0.625398815239836E-010
 -0.189411778401178E-010  0.317432571442450E-011  0.339084136567851E-010 -0.560598209474621E-011 -0.477998010733918E-010  0.780919878337816E-011  0.624167431569059E-010
 -0.206093636037931E-010  0.345530277835086E-011  0.317290201438496E-010 -0.526597121541343E-011 -0.481320088460605E-010  0.792007058921180E-011  0.620528802518230E-010
 -0.220989729181701E-010  0.370834073706093E-011  0.294248037596794E-010 -0.490434529712043E-011 -0.481602555795089E-010  0.798396349158583E-011  0.614421692528868E-010
 -0.234006896678227E-010  0.393325126961983E-011  0.270104954777383E-010 -0.451824875161469E-011 -0.478849263926237E-010  0.798229474730414E-011  0.605782675942656E-010
 -0.245064221966278E-010  0.412853769996347E-011  0.245015015335355E-010 -0.411304132628658E-011 -0.473082802303573E-010  0.792372828035155E-011  0.594618250138426E-010
 -0.254093558219887E-010  0.428201252362274E-011  0.219137605574483E-010 -0.370127416428875E-011 -0.464342944954858E-010  0.785318147921506E-011  0.581007686064157E-010
 -0.261038741759038E-010  0.441638026587535E-011  0.192638039765932E-010 -0.326092261516809E-011 -0.452692739442208E-010  0.766535765985822E-011  0.564863636891283E-010
 -0.265858605916361E-010  0.450266252340085E-011  0.165683477636431E-010 -0.282175640820468E-011 -0.438205490076058E-010  0.747540325002554E-011  0.546413380246705E-010
 -0.268523736829052E-010  0.456065513554818E-011  0.138445488368230E-010 -0.236665407141243E-011 -0.420979242018934E-010  0.720267061193271E-011  0.525664820001801E-010
 -0.269019733283710E-010  0.457604902837134E-011  0.111095635031090E-010 -0.191239086404200E-011 -0.401122766868253E-010  0.690111553351007E-011  0.502827433833112E-010
 -0.267344763207406E-010  0.455863556843066E-011  0.838071668854908E-011 -0.145070444356416E-011 -0.378765255534275E-010  0.653264935184277E-011  0.478033382813192E-010
 -0.263510523637660E-010  0.451347452275663E-011  0.567526661909224E-011 -0.979853877984225E-012 -0.354050170223248E-010  0.609046973383886E-011  0.451500494707964E-010
 -0.257546267950171E-010  0.440611367130693E-011  0.300989895378652E-011 -0.537265652950658E-012 -0.327124455848887E-010  0.567040841433518E-011  0.423593916776283E-010
 -0.249486417595579E-010  0.428552935861920E-011  0.401823933100208E-012 -0.777746813131585E-013 -0.298169392628362E-010  0.514977554390138E-011  0.394529201710765E-010
 -0.239387593061134E-010  0.410995608914936E-011 -0.213303258017991E-011  0.353883740622940E-012 -0.267356207964241E-010  0.462834871210607E-011  0.364807511970953E-010
 -0.227311735310036E-010  0.390749884045374E-011 -0.457851637806070E-011  0.780807834508131E-012 -0.234882669939219E-010  0.405584890716931E-011  0.334917250878712E-010
 -0.213336682601204E-010  0.367714494206417E-011 -0.691938829858746E-011  0.119909230232903E-011 -0.200949278682423E-010  0.344431872441654E-011  0.305553879773694E-010
 -0.197553058099312E-010  0.339748657300320E-011 -0.914121658567944E-011  0.158235316184620E-011 -0.165764586082292E-010  0.282196474089633E-011  0.277600873851265E-010
 -0.180058023004445E-010  0.310017427723658E-011 -0.112298551204224E-010  0.195787049583784E-011 -0.129548708871165E-010  0.216750002517156E-011  0.252247034553219E-010
 -0.160961662989244E-010  0.278771316877588E-011 -0.131722472958608E-010  0.232340487278423E-011 -0.925237122179347E-011  0.150227510119594E-011  0.231001347492394E-010
 -0.140390186677543E-010  0.241955001674082E-011 -0.149568883880473E-010  0.263368875168492E-011 -0.549192196904880E-011  0.825117570218834E-012  0.215503558008633E-010
 -0.118466667732517E-010  0.204245073803489E-011 -0.165720356255006E-010  0.293106511620546E-011 -0.169664321670618E-011  0.148703982323443E-012  0.207512939633967E-010
 -0.953339020506996E-011  0.162791716603793E-011 -0.180081707438662E-010  0.318177064360147E-011  0.210964358779241E-011 -0.542686743282714E-012  0.208006633355086E-010
 -0.711329182162004E-011  0.120167917530034E-011 -0.192559558331530E-010  0.340725723161272E-011  0.590375136841353E-011 -0.122320264447955E-011  0.216970399287746E-010
 -0.460177220458059E-011  0.752715502787772E-012 -0.203078801335990E-010  0.359146217701600E-011  0.966185008353478E-011 -0.190658337771568E-011  0.233238340346264E-010
 -0.201421005024078E-011  0.305465269149542E-012 -0.211570544202178E-010  0.375483928055150E-011  0.133613127819228E-010 -0.254415265957698E-011  0.255116332461529E-010
  0.632790420730226E-012 -0.162331617236823E-012 -0.217986234909369E-010  0.386988458261954E-011  0.169782572638344E-010 -0.318348273145508E-011  0.280882127011628E-010
  0.332282251039675E-011 -0.639517481194713E-012 -0.222284089622120E-010  0.394542628781418E-011  0.204903732377905E-010 -0.380749034279567E-011  0.309104274836743E-010
  0.603925772097908E-011 -0.111035489504896E-011 -0.224435549120392E-010  0.399163314489395E-011  0.238763191803170E-010 -0.437160781601041E-011  0.338605067413211E-010
  0.876469153445132E-011 -0.159586148389507E-011 -0.224431123925388E-010  0.398383907749860E-011  0.271134744304958E-010 -0.495100620299000E-011  0.368588678099017E-010
  0.114824401511079E-010 -0.207337390226544E-011 -0.222266602873396E-010  0.394271952598368E-011  0.301826399251019E-010 -0.547914931752780E-011  0.398336822810073E-010
  0.141756870623109E-010 -0.252671750639971E-011 -0.217953221202409E-010  0.388065009947224E-011  0.330652625346215E-010 -0.589655475401970E-011  0.427259971873061E-010
  0.168269266362508E-010 -0.299065338476131E-011 -0.211523828984196E-010  0.375965782409596E-011  0.357404723405662E-010 -0.635188349822678E-011  0.455123673731369E-010
  0.194199525973261E-010 -0.343822441699109E-011 -0.203013492796665E-010  0.360578226247064E-011  0.381928330084665E-010 -0.674787039477564E-011  0.481490224478443E-010
  0.219384715586541E-010 -0.386720244076266E-011 -0.192475001569000E-010  0.341800605499755E-011  0.404065158155346E-010 -0.708575400390308E-011  0.506092255235284E-010
  0.243666029911922E-010 -0.427863118049437E-011 -0.179973736414384E-010  0.319529399043462E-011  0.423670008013053E-010 -0.737944164071200E-011  0.528731399360691E-010
  0.266891390088983E-010 -0.466527513807347E-011 -0.165586416145385E-010  0.294302606574592E-011  0.440618463725598E-010 -0.760774900983040E-011  0.549203232004003E-010
  0.288913318341685E-010 -0.503108695006757E-011 -0.149402776171821E-010  0.265871516334168E-011  0.454795098626167E-010 -0.779643881861195E-011  0.567402937202876E-010
  0.309593468073339E-010 -0.536919038933508E-011 -0.131523193889850E-010  0.234460977424691E-011  0.466107913917599E-010 -0.793288059964045E-011  0.583204234332776E-010
  0.328800656955862E-010 -0.567911500718743E-011 -0.112058417499959E-010  0.200551649184649E-011  0.474480794577334E-010 -0.801612999735436E-011  0.596531927640295E-010
  0.346413065609558E-010 -0.595868448541803E-011 -0.911298514700919E-011  0.164228696978445E-011  0.479855678747174E-010 -0.804962007437548E-011  0.607343172182160E-010
  0.362318520473080E-010 -0.620651732019859E-011 -0.688678902103644E-011  0.125846052592564E-011  0.482193960436125E-010 -0.803217971052851E-011  0.615619841260197E-010
  0.376415987216570E-010 -0.641696048582184E-011 -0.454117015977038E-011  0.856734375982971E-012  0.481476865931775E-010 -0.795758532142143E-011  0.621362548011595E-010
  0.388613788591063E-010 -0.660081563473304E-011 -0.209085556809662E-011  0.434995225169827E-012  0.477700837532508E-010 -0.786221964555452E-011  0.624668071702221E-010
  0.398835169340471E-010 -0.673910935284244E-011  0.448906454075856E-012  0.857151713809136E-014  0.470891928590581E-010 -0.768197387629297E-011  0.625514257365773E-010
  0.407011995654309E-010 -0.685085037015188E-011  0.306202496260934E-011 -0.434551930788054E-012  0.461082664564865E-010 -0.749143676019256E-011  0.624110939606479E-010
  0.413092070418926E-010 -0.692175312277529E-011  0.573212284614299E-011 -0.881716885862489E-012  0.448335471627223E-010 -0.724509499357757E-011  0.620523878328422E-010
  0.417034586655271E-010 -0.696029715625437E-011  0.844233600753934E-011 -0.133621639837563E-011  0.432726793702344E-010 -0.697244283078281E-011  0.614962685040046E-010
  0.418813746230372E-010 -0.694650601767112E-011  0.111756402785607E-010 -0.177564084104509E-011  0.414356695635254E-010 -0.660392336651833E-011  0.607522891220886E-010
  0.418414394963793E-010 -0.692240897988211E-011  0.139145198787466E-010 -0.223956888575298E-011  0.393332043297202E-010 -0.629241986970211E-011  0.598659024524861E-010
  0.415839072255145E-010 -0.684931000871761E-011  0.166418065278453E-010 -0.268460832535758E-011  0.369791774786101E-010 -0.589816393294566E-011  0.588431698700358E-010
  0.411101895883235E-010 -0.673118694970879E-011  0.193401246620316E-010 -0.311233628573252E-011  0.343882489454065E-010 -0.544788711002763E-011  0.577173761043753E-010
  0.404230957136943E-010 -0.659347371970500E-011  0.219922851865985E-010 -0.354346579778525E-011  0.315767883121495E-010 -0.500657712401858E-011  0.565319743460123E-010
  0.395268335781564E-010 -0.642535471403509E-011  0.245813923728642E-010 -0.396486201825024E-011  0.285627122645012E-010 -0.454383469344753E-011  0.553180747741150E-010
  0.384269937853252E-010 -0.622074006171086E-011  0.270909653700298E-010 -0.436598375372539E-011  0.253653423909615E-010 -0.404567500815830E-011  0.541117294695411E-010
  0.371303906870857E-010 -0.597821373848867E-011  0.295049266128366E-010 -0.474175503703348E-011  0.220050775157294E-010 -0.351722448645333E-011  0.529530330998205E-010
  0.356452022056495E-010 -0.572429034247891E-011  0.318078766904791E-010 -0.511514380393644E-011  0.185035344729103E-010 -0.299151681491176E-011  0.518901080067358E-010
  0.339807968806717E-010 -0.543687998050744E-011  0.339850841330654E-010 -0.546028320822016E-011  0.148832081808351E-010 -0.244142258314472E-011  0.509560823578466E-010
  0.321475941731384E-010 -0.511937765650995E-011  0.360224963405391E-010 -0.577699315409249E-011  0.111673569765195E-010 -0.187814116306649E-011  0.501886274890794E-010
  0.301572924193031E-010 -0.477340941118576E-011  0.379071273833372E-010 -0.606327929708905E-011  0.737996588679893E-011 -0.131093260440244E-011  0.496198032969872E-010
  0.280225456783317E-010 -0.443719461743948E-011  0.396268964184321E-010 -0.635378705612001E-011  0.354541156757316E-011 -0.723313727216091E-012  0.492816437958305E-010
  0.257568525092453E-010 -0.406471082249121E-011  0.411706785770461E-010 -0.659863372097637E-011 -0.311540926660840E-012 -0.135438953291904E-012  0.491794040124052E-010
  0.233746387448852E-010 -0.366197272004699E-011  0.425285578722085E-010 -0.680157901957573E-011 -0.416596152775384E-011  0.433138210320832E-012  0.493174488955788E-010
  0.208911650499327E-010 -0.325622620788322E-011  0.436918735007407E-010 -0.698484219020333E-011 -0.799310625299253E-011  0.101299234036595E-011  0.496956569966028E-010
  0.183223402924487E-010 -0.285339001353432E-011  0.446532180131602E-010 -0.715211361034279E-011 -0.117684826448000E-010  0.161950672364710E-011  0.502987654359994E-010
  0.156843825365182E-010 -0.242288999811513E-011  0.454062395808784E-010 -0.727048142213277E-011 -0.154674217101939E-010  0.218112908299109E-011  0.510918383879037E-010
  0.129942695173493E-010 -0.199264815921297E-011  0.459462276572864E-010 -0.736343725739034E-011 -0.190664303969698E-010  0.275086473853081E-011  0.520491424248904E-010
  0.102691911830148E-010 -0.156165380938117E-011  0.462697397635161E-010 -0.742782269248561E-011 -0.225424546627520E-010  0.332129845169341E-011  0.531326305418350E-010
  0.752645719620594E-011 -0.111417327309652E-011  0.463746178626201E-010 -0.744501124078875E-011 -0.258729281038653E-010  0.383044978404696E-011  0.542947547711525E-010
  0.541965699628559E-011 -0.795856823301959E-012  0.437649603956621E-010 -0.696702635390458E-011 -0.264040413590718E-010  0.387775753778624E-011  0.520197030280854E-010
  0.262021594624300E-011 -0.355657201071918E-012  0.436490706886015E-010 -0.696309154350172E-011 -0.296328160475172E-010  0.442497751613515E-011  0.534634305698046E-010
 -0.161308778609134E-012  0.881384820803098E-013  0.433102400186106E-010 -0.691878021546466E-011 -0.326709057742176E-010  0.491981709084046E-011  0.549109855454468E-010
 -0.290713779236835E-011  0.525920989649982E-012  0.427507198448180E-010 -0.684257275697712E-011 -0.354991647358956E-010  0.539580639610718E-011  0.563242952742633E-010
 -0.559972172101313E-011  0.952535278432030E-012  0.419741749472735E-010 -0.673538246851053E-011 -0.380999314305318E-010  0.586485532621937E-011  0.576664921631315E-010
 -0.822195054328881E-011  0.137409861379298E-011  0.409856136993060E-010 -0.659235657269111E-011 -0.404566027454207E-010  0.627638808001901E-011  0.588970829393998E-010
 -0.107571017719905E-010  0.178326100930372E-011  0.397914651344915E-010 -0.641631158604140E-011 -0.425546584797653E-010  0.665228875249278E-011  0.599879266321316E-010
 -0.131890622522218E-010  0.217926971146704E-011  0.383994469017601E-010 -0.620888955463987E-011 -0.443810990669293E-010  0.698415082805124E-011  0.609114727258031E-010
 -0.155023772029257E-010  0.255456236252284E-011  0.368185614633455E-010 -0.597348466536692E-011 -0.459248584580903E-010  0.729763752390014E-011  0.616479769843134E-010
 -0.176824015534441E-010  0.291186032194585E-011  0.350589740342515E-010 -0.570688724375656E-011 -0.471764881835825E-010  0.755743700514018E-011  0.621737377833664E-010
 -0.197153548464531E-010  0.324820226396472E-011  0.331320214554312E-010 -0.541274327761889E-011 -0.481285863089210E-010  0.777083158393930E-011  0.624741244393419E-010
 -0.215884061484060E-010  0.356115107642428E-011  0.310500774818716E-010 -0.509208007500961E-011 -0.487756679519925E-010  0.793549239878338E-011  0.625364928628837E-010
 -0.232897718636967E-010  0.384933016455247E-011  0.288264917044522E-010 -0.474481466205324E-011 -0.491141808841411E-010  0.804073987053374E-011  0.623503463300871E-010
 -0.248087756379559E-010  0.410777276672231E-011  0.264755017469799E-010 -0.437697591278632E-011 -0.491425675595862E-010  0.810967822304080E-011  0.619129866689738E-010
 -0.261359389876537E-010  0.433601773844022E-011  0.240121347827829E-010 -0.398680678827390E-011 -0.488611784032245E-010  0.812092697094289E-011  0.612187043271377E-010
 -0.272629953070810E-010  0.453550175248392E-011  0.214521092699312E-010 -0.357657354250029E-011 -0.482723685235403E-010  0.806680722016357E-011  0.602670820362783E-010
 -0.281829812951159E-010  0.470233645577331E-011  0.188117282614763E-010 -0.315004879111968E-011 -0.473803454408898E-010  0.795890877511507E-011  0.590629913686836E-010
 -0.288902715656146E-010  0.483060393172483E-011  0.161077589299954E-010 -0.271263742493910E-011 -0.461910969279020E-010  0.781603478034825E-011  0.576151568597735E-010
 -0.293805580218738E-010  0.492456776892509E-011  0.133573799280854E-010 -0.226377229915557E-011 -0.447126622876599E-010  0.761508679888460E-011  0.559304949831767E-010
 -0.296509157085195E-010  0.498637197690124E-011  0.105780338813856E-010 -0.180134619379716E-011 -0.429548143117961E-010  0.733319983115821E-011  0.540191491085946E-010
 -0.296998390147920E-010  0.501207809899090E-011  0.778728537919459E-011 -0.133247099137025E-011 -0.409288418613910E-010  0.699641792245642E-011  0.519012128108817E-010
 -0.295273152551803E-010  0.498751551910767E-011  0.500264660709570E-011 -0.873340237576478E-012 -0.386472464291841E-010  0.666531866169832E-011  0.496039912448113E-010
 -0.291344803191069E-010  0.493381212712125E-011  0.224179657034843E-011 -0.406265578422386E-012 -0.361251519475219E-010  0.624509884715404E-011  0.471420442074732E-010
 -0.285240156629768E-010  0.484465308900650E-011 -0.477922529842365E-012  0.594329903725370E-013 -0.333783305010332E-010  0.577114893231943E-011  0.445503117930967E-010
 -0.276999464105014E-010  0.471952623943056E-011 -0.313943261429530E-011  0.520989870131043E-012 -0.304240015800400E-010  0.524703561302130E-011  0.418669036043742E-010
 -0.266676305832340E-010  0.455479450784017E-011 -0.572606816217127E-011  0.969742832659861E-012 -0.272805312837263E-010  0.469557273864485E-011  0.391396469550044E-010
 -0.254338029249682E-010  0.435099839419597E-011 -0.822173088279644E-011  0.140253006892255E-011 -0.239673079225838E-010  0.411628693606366E-011  0.364245653431401E-010
 -0.240063337927645E-010  0.410406472086689E-011 -0.106108090203306E-010  0.181110457156650E-011 -0.205050507838268E-010  0.351628298671270E-011  0.337910941150301E-010
 -0.223938319894451E-010  0.385440701278655E-011 -0.128779091857403E-010  0.223182094810546E-011 -0.169157744310710E-010  0.285148205361437E-011  0.313278320704098E-010
 -0.206074841390390E-010  0.353043508231866E-011 -0.150098676706287E-010  0.258822262498908E-011 -0.132206810468993E-010  0.220316405137884E-011  0.291335568076981E-010
 -0.186576667835136E-010  0.320135850035948E-011 -0.169924929138037E-010  0.294480902035817E-011 -0.944333909295288E-011  0.152159970902774E-011  0.273359803005766E-010
 -0.165571414016144E-010  0.283841511711353E-011 -0.188139174509241E-010  0.326820021322471E-011 -0.560686785783852E-011  0.829064700552717E-012  0.260565870581271E-010
 -0.143188996342597E-010  0.245395412131730E-011 -0.204625942871658E-010  0.356586217186504E-011 -0.173487032622077E-011  0.134461042297785E-012  0.254064157490559E-010
 -0.119571193735690E-010  0.204648664282227E-011 -0.219284049803321E-010  0.383120137031831E-011  0.214867615091352E-011 -0.557174733902582E-012  0.254477368464526E-010
 -0.948671845471834E-011  0.160989133777374E-011 -0.232023332168562E-010  0.405434012953342E-011  0.601941982792026E-011 -0.126419757670964E-011  0.261756023298078E-010
 -0.692289915616722E-011  0.116613911344752E-011 -0.242762131465996E-010  0.425122420177960E-011  0.985401157319225E-011 -0.193770591492646E-011  0.275228733358316E-010
 -0.428176847648033E-011  0.711829725333220E-012 -0.251434171320794E-010  0.441474182466623E-011  0.136286299155961E-010 -0.258132547668029E-011  0.293750765488230E-010
 -0.158020147032241E-011  0.230672062637259E-012 -0.257989121566050E-010  0.452377098902553E-011  0.173185536020516E-010 -0.325952510053824E-011  0.316088530628875E-010
  0.116535541638605E-011 -0.248203505184428E-012 -0.262381587678532E-010  0.460374587850361E-011  0.209022762717825E-010 -0.387999467965687E-011  0.341025861443151E-010
  0.393749353839553E-011 -0.735374640814025E-012 -0.264586662035517E-010  0.463911530766829E-011  0.243564530318508E-010 -0.449040147124275E-011  0.367559710645527E-010
  0.671906295605072E-011 -0.121783788957474E-011 -0.264588247725053E-010  0.464096240159313E-011  0.276602112704388E-010 -0.504359706305602E-011  0.394809419217643E-010
  0.949256655879479E-011 -0.169826986995072E-011 -0.262387296790920E-010  0.460128158320763E-011  0.307922855035324E-010 -0.556291671032007E-011  0.422106111225146E-010
  0.122407021160937E-010 -0.216944709231854E-011 -0.257996372555910E-010  0.452506110455773E-011  0.337331330473235E-010 -0.602425689380884E-011  0.448870864486787E-010
  0.149461347063887E-010 -0.263681671410863E-011 -0.251443397642268E-010  0.440518633740298E-011  0.364633331866684E-010 -0.647400066208948E-011  0.474707094952109E-010
  0.175919876633826E-010 -0.309233839633409E-011 -0.242767936278262E-010  0.424648564295504E-011  0.389658448489787E-010 -0.688485991168491E-011  0.499216682585108E-010
  0.201617772456130E-010 -0.352574263762994E-011 -0.232022207157444E-010  0.405708244657919E-011  0.412253313163911E-010 -0.720944730586076E-011  0.522037849143746E-010
  0.226392168971964E-010 -0.394300545150552E-011 -0.219273789966066E-010  0.383012161049723E-011  0.432263121256153E-010 -0.750128411343489E-011  0.542986555323035E-010
  0.250087737600758E-010 -0.433796677039479E-011 -0.204600877299573E-010  0.357103818291140E-011  0.449561193382269E-010 -0.773682439595085E-011  0.561830304362196E-010
  0.272554709617857E-010 -0.471087156395080E-011 -0.188094760104752E-010  0.327864187509525E-011  0.464031003679123E-010 -0.793542077690944E-011  0.578430053528337E-010
  0.293651984302967E-010 -0.505394470898422E-011 -0.169857315518227E-010  0.295831976829332E-011  0.475580853158035E-010 -0.806729301479975E-011  0.592618691679531E-010
  0.313245061783149E-010 -0.537147058706192E-011 -0.150001685859111E-010  0.261350268955701E-011  0.484130096027550E-010 -0.815155704658194E-011  0.604331758665183E-010
  0.331210545584894E-010 -0.565497954182470E-011 -0.128652146210336E-010  0.224192375025424E-011  0.489620499274224E-010 -0.818340671147433E-011  0.613494783620027E-010
  0.347433423803928E-010 -0.590717657198365E-011 -0.105941021692903E-010  0.185209208844213E-011  0.492013149524974E-010 -0.815654174120180E-011  0.620075648989929E-010
  0.361810246980209E-010 -0.612591687743611E-011 -0.820109360080300E-011  0.144093446995128E-011  0.491285633929611E-010 -0.809261532289855E-011  0.624100213546742E-010
  0.374248992451716E-010 -0.630864675954717E-011 -0.570111119154121E-011  0.101631846141526E-011  0.487440467737253E-010 -0.796929140365419E-011  0.625573502688483E-010
  0.384668914356088E-010 -0.645905419392287E-011 -0.310988520673293E-011  0.575459228963481E-012  0.480494080343921E-010 -0.782211023382043E-011  0.624606101692263E-010
  0.393003518404249E-010 -0.656617176727853E-011 -0.443604106683593E-012  0.132211007032685E-012  0.470492397693894E-010 -0.758611418551149E-011  0.621207761330529E-010
  0.399196625637636E-010 -0.664929969105462E-011  0.228078847999733E-011 -0.331115864268879E-012  0.457485431153958E-010 -0.738534987257488E-011  0.615674583056043E-010
  0.403209400848798E-010 -0.667756685635317E-011  0.504633627563664E-011 -0.780803713715774E-012  0.441565426613410E-010 -0.704561965026149E-011  0.607935132249598E-010
  0.405012703774993E-010 -0.668006390618900E-011  0.783538730412188E-011 -0.124166535719771E-011  0.422820520116942E-010 -0.672622270631294E-011  0.598405875418111E-010
  0.404593685859498E-010 -0.664379873064826E-011  0.106303353626550E-010 -0.169845861980939E-011  0.401370367248137E-010 -0.636095759476456E-011  0.587231353268607E-010
  0.401953279912356E-010 -0.657677491006431E-011  0.134134843712867E-010 -0.215453929425626E-011  0.377350903199854E-010 -0.597987261887398E-011  0.574731089688409E-010
  0.397106510792396E-010 -0.646370630897671E-011  0.161671559318141E-010 -0.259301160232734E-011  0.350913500877291E-010 -0.552824720321747E-011  0.561138295496569E-010
  0.390082034719684E-010 -0.632497875833131E-011  0.188738049702008E-010 -0.302900241210840E-011  0.322224878746552E-010 -0.507877423304123E-011  0.546910503175952E-010
  0.380922883791184E-010 -0.615505007305398E-011  0.215161889312471E-010 -0.345449271981784E-011  0.291467994817493E-010 -0.460924027480937E-011  0.532406027389110E-010
  0.369685879365999E-010 -0.594734735198272E-011  0.240774607672478E-010 -0.385854049945799E-011  0.258839837864431E-010 -0.409884484399234E-011  0.518019133474777E-010
  0.356441347515028E-010 -0.570779364975980E-011  0.265412775223129E-010 -0.424334189494132E-011  0.224549738252209E-010 -0.356750308212282E-011  0.504230203187058E-010
  0.341272009596924E-010 -0.544112489322620E-011  0.288918422189005E-010 -0.460983959161020E-011  0.188817001088426E-010 -0.302426907834711E-011  0.491520651790798E-010
  0.324273442954025E-010 -0.515012053747934E-011  0.311141058807889E-010 -0.495724092725892E-011  0.151871638937924E-010 -0.247100079920768E-011  0.480361448544044E-010
  0.305554096142511E-010 -0.486023383401204E-011  0.331939237210059E-010 -0.530745732321326E-011  0.113951625388040E-010 -0.190883061259016E-011  0.471247918997469E-010
  0.285230469694728E-010 -0.451066955877629E-011  0.351177424628606E-010 -0.559586238785995E-011  0.753007752992708E-011 -0.132652993992642E-011  0.464427046656895E-010
  0.263432090480030E-010 -0.414683420272265E-011  0.368732569095027E-010 -0.586417568528004E-011  0.361696174069440E-011 -0.742792655681094E-012  0.460303339503456E-010
  0.240299317129478E-010 -0.376472611032252E-011  0.384493626378366E-010 -0.610520656570699E-011 -0.319102219943904E-012 -0.160033589666871E-012  0.459059944336599E-010
  0.215978666386219E-010 -0.338550438763222E-011  0.398358478229472E-010 -0.633638823982986E-011 -0.425273060189051E-011  0.460193564446209E-012  0.460784699162754E-010
  0.190624140021781E-010 -0.297152815768616E-011  0.410236925586908E-010 -0.651726388080636E-011 -0.815831847186700E-011  0.104059819722178E-011  0.465317362779258E-010
  0.164398592870981E-010 -0.254954838505944E-011  0.420053687904519E-010 -0.667078730321270E-011 -0.120108906797288E-010  0.162399934481775E-011  0.472498158917131E-010
  0.137469574259536E-010 -0.212108342754554E-011  0.427745803726438E-010 -0.679569898688620E-011 -0.157856981591691E-010  0.221003471494086E-011  0.482008243480644E-010
  0.110008889470331E-010 -0.168467219374285E-011  0.433263639792611E-010 -0.688729148382553E-011 -0.194584158924286E-010  0.278513836580404E-011  0.493434394864391E-010
  0.821921161367923E-011 -0.124463955841375E-011  0.436572112675415E-010 -0.694769179785639E-011 -0.230055030217569E-010  0.335358174955737E-011  0.506335166607021E-010
  0.541965699628559E-011 -0.795856823301959E-012  0.437649603956621E-010 -0.696702635390458E-011 -0.264040413590718E-010  0.387775753778624E-011  0.520197030280854E-010
  0.327590722802363E-011 -0.481142360874035E-012  0.408693899733266E-010 -0.645435099867285E-011 -0.267630120008915E-010  0.393122710639982E-011  0.495437367707246E-010
  0.437840088895542E-012 -0.305115671360145E-013  0.407526246105599E-010 -0.644123390889471E-011 -0.300351460330895E-010  0.443291544903961E-011  0.512264799953285E-010
 -0.238186358859760E-011  0.411104009498304E-012  0.404099566742959E-010 -0.640046555250231E-011 -0.331145699351514E-010  0.497288450958189E-011  0.529247788834765E-010
 -0.516529190971517E-011  0.853396249314218E-012  0.398435452881407E-010 -0.632061003792488E-011 -0.359809324753061E-010  0.543917660217399E-011  0.545805597911155E-010
 -0.789461965994958E-011  0.128528161844298E-011  0.390571516502083E-010 -0.621040200424869E-011 -0.386167667508538E-010  0.590915054565514E-011  0.561618266928364E-010
 -0.105524817277077E-010  0.170922995174530E-011  0.380558532866893E-010 -0.606576502864756E-011 -0.410052176902252E-010  0.633210043437674E-011  0.576265523724673E-010
 -0.131219524970021E-010  0.212274098666726E-011  0.368461417787666E-010 -0.588748943473805E-011 -0.431314185340711E-010  0.670454173227406E-011  0.589427251828528E-010
 -0.155866726112546E-010  0.251976000828681E-011  0.354358561644184E-010 -0.567843793429716E-011 -0.449824307865584E-010  0.705703614250291E-011  0.600870012942884E-010
 -0.179310117029495E-010  0.290082311157492E-011  0.338340958161764E-010 -0.543879095141102E-011 -0.465467833870327E-010  0.736313546924358E-011  0.610333873357409E-010
 -0.201401071342531E-010  0.326257134015766E-011  0.320511863523028E-010 -0.516943049426955E-011 -0.478150789326794E-010  0.762612313216492E-011  0.617633047490559E-010
 -0.221999914448684E-010  0.360336601303666E-011  0.300986017507858E-010 -0.487214315124540E-011 -0.487797829836708E-010  0.784208773722914E-011  0.622611565167343E-010
 -0.240976670644193E-010  0.392018687283644E-011  0.279888836325407E-010 -0.454760424321881E-011 -0.494353314833094E-010  0.800886552000236E-011  0.625149372735107E-010
 -0.258211985468853E-010  0.421102099232251E-011  0.257355675854627E-010 -0.419780407187025E-011 -0.497781505954890E-010  0.812483695126417E-011  0.625162797151421E-010
 -0.273597767636497E-010  0.447520973729850E-011  0.233530805165488E-010 -0.382537182311533E-011 -0.498066506208026E-010  0.818741177395907E-011  0.622601031389564E-010
 -0.287037848123264E-010  0.470930119229008E-011  0.208566493433768E-010 -0.343047796282765E-011 -0.495212330468310E-010  0.818952706818599E-011  0.617436029837948E-010
 -0.298448811426089E-010  0.490919272143992E-011  0.182622007594547E-010 -0.301937476831850E-011 -0.489241840886837E-010  0.816606188687418E-011  0.609729292650377E-010
 -0.307759869935104E-010  0.508078322477313E-011  0.155862688233626E-010 -0.258755034523330E-011 -0.480199507309822E-010  0.804145849663959E-011  0.599431384698810E-010
 -0.314914103608291E-010  0.521806413927979E-011  0.128458608640643E-010 -0.214175080116329E-011 -0.468146244614509E-010  0.786351910993872E-011  0.586683976031535E-010
 -0.319868265639282E-010  0.531618347629968E-011  0.100583599499186E-010 -0.168750906491282E-011 -0.453161649271907E-010  0.766023582157241E-011  0.571635007632694E-010
 -0.322592860362992E-010  0.537834052649906E-011  0.724143051707486E-011 -0.122410455917257E-011 -0.435344618343417E-010  0.739561715054342E-011  0.554388206495720E-010
 -0.323072942601658E-010  0.540170079806295E-011  0.441286453443753E-011 -0.756625179786508E-012 -0.414808656906193E-010  0.708927178415664E-011  0.535153878012670E-010
 -0.321307142335579E-010  0.538928689608017E-011  0.159053942299291E-011 -0.284846135615793E-012 -0.391687373102874E-010  0.671652008747295E-011  0.514133364511753E-010
 -0.317308751258396E-010  0.533626700512137E-011 -0.120777979122645E-011  0.184315469856763E-012 -0.366126362564847E-010  0.630797475478248E-011  0.491638346830790E-010
 -0.311104487093309E-010  0.524915481421608E-011 -0.396445869003028E-011  0.654300874423442E-012 -0.338289134844075E-010  0.582255661227417E-011  0.467958322691525E-010
 -0.302735658651683E-010  0.512151003524671E-011 -0.666223243146260E-011  0.111503255579174E-011 -0.308347677330089E-010  0.530837673796872E-011  0.443543071439862E-010
 -0.292256342591374E-010  0.495618992472707E-011 -0.928417276917259E-011  0.156511069195105E-011 -0.276489989329975E-010  0.475736202301588E-011  0.418860812397759E-010
 -0.279733932561089E-010  0.475665862318869E-011 -0.118138616509772E-010  0.200470550144434E-011 -0.242914756291963E-010  0.415903106333646E-011  0.394473762359955E-010
 -0.265248344104709E-010  0.452251272619104E-011 -0.142354739664270E-010  0.242865971129713E-011 -0.207830561581565E-010  0.353179092573346E-011  0.371076264288022E-010
 -0.248891937842659E-010  0.425377893084661E-011 -0.165339150293747E-010  0.283290888226362E-011 -0.171453738198628E-010  0.288258692422217E-011  0.349461530454915E-010
 -0.230769230325439E-010  0.394879400820942E-011 -0.186949398063316E-010  0.321103581867579E-011 -0.134008637131784E-010  0.221828262712036E-011  0.330521977535147E-010
 -0.210993663040078E-010  0.361194531643746E-011 -0.207049813703326E-010  0.356278964100366E-011 -0.957283986264710E-011  0.153407196122218E-011  0.315214400835601E-010
 -0.189689899461430E-010  0.325265288642042E-011 -0.225515348185517E-010  0.389279998813032E-011 -0.568485422161021E-011  0.840866240893803E-012  0.304488838645609E-010
 -0.166993172477851E-010  0.285786807769708E-011 -0.242232445406264E-010  0.418306565187484E-011 -0.176109011521234E-011  0.127049512248309E-012  0.299062754971534E-010
 -0.143044104171269E-010  0.244829808372584E-011 -0.257095293677224E-010  0.444961812378883E-011  0.217452731098231E-011 -0.572894371891614E-012  0.299400712540329E-010
 -0.117994632676086E-010  0.201223089459600E-011 -0.270013364824841E-010  0.467579229018721E-011  0.609723051398379E-011 -0.128764451647319E-011  0.305449497314384E-010
 -0.919993541437361E-011  0.156841573986170E-011 -0.280904100492400E-010  0.487567403426059E-011  0.998360953670007E-011 -0.195202324468862E-011  0.316761937043776E-010
 -0.652237312361894E-011  0.110157821808436E-011 -0.289702648477101E-010  0.502915985370907E-011  0.138083518279752E-010 -0.263968259538076E-011  0.332552704062464E-010
 -0.378336577878894E-011  0.625332099995514E-012 -0.296352623735575E-010  0.514592398636043E-011  0.175483132900554E-010 -0.330169076345029E-011  0.351884943280555E-010
 -0.100002132484666E-011  0.143337495834023E-012 -0.300812562893434E-010  0.522467968989324E-011  0.211803397162443E-010 -0.392602088981062E-011  0.373788643994767E-010
  0.181025355916415E-011 -0.341775230143359E-012 -0.303054475116709E-010  0.526494436720568E-011  0.246816711655614E-010 -0.451145315592436E-011  0.397371636998777E-010
  0.462986980122671E-011 -0.827932966334582E-012 -0.303064476252231E-010  0.526424503030231E-011  0.280301687621324E-010 -0.506303433236225E-011  0.421855319582453E-010
  0.744115645104209E-011 -0.131427414563602E-011 -0.300842358648653E-010  0.522101224520582E-011  0.312043319004833E-010 -0.560132150188382E-011  0.446596834551288E-010
  0.102265595268361E-010 -0.179567405219232E-011 -0.296401210285737E-010  0.513698056030782E-011  0.341842960324113E-010 -0.611107889168846E-011  0.471023262565803E-010
  0.129687269940914E-010 -0.226390464547508E-011 -0.289767426054813E-010  0.501681296743172E-011  0.369519031852438E-010 -0.654336063394376E-011  0.494609328676437E-010
  0.156504204056306E-010 -0.271897763215113E-011 -0.280982030653356E-010  0.485910161779494E-011  0.394889791997860E-010 -0.692402191306625E-011  0.516988090142193E-010
  0.182547557442745E-010 -0.316204757703432E-011 -0.270099521601364E-010  0.466182906488130E-011  0.417785977329694E-010 -0.729388733011336E-011  0.537880534357678E-010
  0.207654843773742E-010 -0.358294509856459E-011 -0.257186219761988E-010  0.443163617651123E-011  0.438070152609509E-010 -0.758141032818725E-011  0.556925651490613E-010
  0.231667504499455E-010 -0.398297275506870E-011 -0.242322279750596E-010  0.416750716324395E-011  0.455604372331663E-010 -0.782546427799326E-011  0.573944482607087E-010
  0.254434440036746E-010 -0.435782679359718E-011 -0.225599571618524E-010  0.387216801315462E-011  0.470275526104143E-010 -0.801112955311771E-011  0.588733627760453E-010
  0.275811621983578E-010 -0.470673728925938E-011 -0.207121755320940E-010  0.354799491276745E-011  0.481984680923549E-010 -0.814803945740026E-011  0.601160258105825E-010
  0.295663879352097E-010 -0.502666763675456E-011 -0.187003661387753E-010  0.319704771936668E-011  0.490653546166483E-010 -0.823248576052069E-011  0.611108926052420E-010
  0.313865262279633E-010 -0.531517961063916E-011 -0.165370538450965E-010  0.282150041604924E-011  0.496222049070828E-010 -0.826540222527454E-011  0.618504031652769E-010
  0.330299817581872E-010 -0.557124440072225E-011 -0.142357100147131E-010  0.242533527626802E-011  0.498650401236062E-010 -0.824347123963520E-011  0.623299434440709E-010
  0.344862503617108E-010 -0.579408481623773E-011 -0.118107177332083E-010  0.201077180186245E-011  0.497917561632311E-010 -0.817387375594486E-011  0.625493858640048E-010
  0.357460092017500E-010 -0.598104475760498E-011 -0.927725812591816E-011  0.158061915151995E-011  0.494023735930354E-010 -0.805256089534175E-011  0.625102880291259E-010
  0.368011069996475E-010 -0.613396414744538E-011 -0.665123045158960E-011  0.113563243687794E-011  0.486986951709559E-010 -0.790711486210855E-011  0.622217271250661E-010
  0.376447633350967E-010 -0.624489653860069E-011 -0.394907409834757E-011  0.686275998668277E-012  0.476853856500878E-010 -0.766278046299762E-011  0.616829189362678E-010
  0.382713880077249E-010 -0.632069020542408E-011 -0.118786160694291E-011  0.228588550608312E-012  0.463678144802868E-010 -0.739584367843602E-011  0.609159901691871E-010
  0.386768503784384E-010 -0.636001143750176E-011  0.161502280851535E-011 -0.233099390432847E-012  0.447543025026742E-010 -0.709409357449339E-011  0.599354223419641E-010
  0.388583448601854E-010 -0.636862704114337E-011  0.444182691094872E-011 -0.701974440660536E-012  0.428544434893234E-010 -0.681003797756465E-011  0.587674457220370E-010
  0.388145821029756E-010 -0.633707324200573E-011  0.727471580353848E-011 -0.116514727668288E-011  0.406805932951839E-010 -0.645691157203483E-011  0.574246969872481E-010
  0.385456303021604E-010 -0.626497885810011E-011  0.100957181478340E-010 -0.161839510797294E-011  0.382463050774830E-010 -0.603365376666505E-011  0.559350224511794E-010
  0.380529986640943E-010 -0.616014498757526E-011  0.128869048113011E-010 -0.206655786171329E-011  0.355668577317682E-010 -0.560086518169202E-011  0.543385617120233E-010
  0.373396381654633E-010 -0.602138961738500E-011  0.156305221213198E-010 -0.250464504306054E-011  0.326592703064484E-010 -0.514208340515027E-011  0.526702238557385E-010
  0.364098866926113E-010 -0.584543666551947E-011  0.183090644779182E-010 -0.292529055209201E-011  0.295419447992311E-010 -0.463548046045984E-011  0.509689652998199E-010
  0.352695343886321E-010 -0.564384417730277E-011  0.209054763133262E-010 -0.333720037211843E-011  0.262349880122532E-010 -0.413903183137158E-011  0.492886681389767E-010
  0.339256720212852E-010 -0.540344819491263E-011  0.234031435690100E-010 -0.372268603153709E-011  0.227594655218709E-010 -0.359165916116445E-011  0.476718628720994E-010
  0.323867165280628E-010 -0.514136320466960E-011  0.257860774413030E-010 -0.409539309777379E-011  0.191376930297987E-010 -0.305118822531007E-011  0.461799520658057E-010
  0.306624193524354E-010 -0.485982510207441E-011  0.280390728335273E-010 -0.445391648261514E-011  0.153930510722627E-010 -0.250243091592116E-011  0.448668458338668E-010
  0.287635892481103E-010 -0.455086252346901E-011  0.301476003160521E-010 -0.478648152436907E-011  0.115495287048797E-010 -0.192536209519167E-011  0.437827935034288E-010
  0.267023290750580E-010 -0.421280189222540E-011  0.320981995587032E-010 -0.508769368791216E-011  0.763193676702283E-011 -0.133152434009496E-011  0.429761069780508E-010
  0.244916107435099E-010 -0.383767006030961E-011  0.338782302356917E-010 -0.534628864229935E-011  0.366565558843556E-011 -0.758719395228924E-012  0.424836939625174E-010
  0.221456941183235E-010 -0.347384612735603E-011  0.354764548377929E-010 -0.560702193176229E-011 -0.324014069928349E-012 -0.131726901010312E-012  0.423395300110222E-010
  0.196792920893456E-010 -0.307099303784858E-011  0.368823679655046E-010 -0.581595749721720E-011 -0.431085278015713E-011  0.445325736038689E-012  0.425390240091758E-010
  0.171083136994652E-010 -0.266478322561670E-011  0.380871142602209E-010 -0.600567662724877E-011 -0.826962141962822E-011  0.105562935103142E-011  0.430805676566747E-010
  0.144490431667493E-010 -0.223572964535569E-011  0.390828269886015E-010 -0.615347860700110E-011 -0.121743070160280E-010  0.161211200589612E-011  0.439298983825494E-010
  0.117186231754876E-010 -0.181060381264843E-011  0.398632713297646E-010 -0.628337755601276E-011 -0.160005520420545E-010  0.223194264317028E-011  0.450565650265399E-010
  0.893434538591996E-011 -0.136790099308986E-011  0.404232761742887E-010 -0.636978492733593E-011 -0.197229333080417E-010  0.278571746229821E-011  0.464002306287884E-010
  0.611412286739511E-011 -0.927941862103137E-012  0.407593886865176E-010 -0.643125234777876E-011 -0.233182625136971E-010  0.337999372761274E-011  0.479169267089684E-010
  0.327590722802363E-011 -0.481142360874035E-012  0.408693899733266E-010 -0.645435099867285E-011 -0.267630120008915E-010  0.393122710639982E-011  0.495437367707246E-010
  0.110931689255034E-011 -0.162017856927205E-012  0.377062158950179E-010 -0.590040689202768E-011 -0.269467932557101E-010  0.393642264377782E-011  0.468978097927936E-010
 -0.174888244350686E-011  0.285788805306980E-012  0.375894353565038E-010 -0.588769482744012E-011 -0.302415267829464E-010  0.445119874913122E-011  0.488373348042252E-010
 -0.458851930824686E-011  0.730921925180449E-012  0.372451458198277E-010 -0.584223356852799E-011 -0.333418422752481E-010  0.496424873960867E-011  0.507858693383472E-010
